ply
format ascii 1.0
element vertex 1024
property float x
property float y
property float z
end_header
0.017650 0.184292 -0.167132
0.026720 0.195327 -0.093156
-0.121811 0.305316 0.124269
0.005503 0.252107 0.008455
-0.042902 0.233852 0.147793
0.031198 0.264987 -0.190975
-0.070890 0.258492 0.067436
-0.093279 0.264125 0.109837
-0.081119 0.275051 0.079111
-0.034017 0.225081 0.144288
0.029621 0.253410 -0.213875
-0.067644 0.312615 0.077906
-0.017637 0.261905 0.000315
0.019154 0.161443 -0.175811
0.006573 0.273728 -0.214906
0.016119 0.180835 -0.212474
0.033288 0.226468 -0.204931
-0.037954 0.278655 -0.035993
-0.064565 0.317909 0.096240
-0.033121 0.234442 0.134948
-0.038591 0.341325 0.112714
0.057232 0.219279 -0.071250
0.075469 0.227355 -0.258311
0.033759 0.194562 -0.093939
-0.006912 0.154640 -0.132796
-0.081287 0.247963 0.097888
-0.115767 0.303896 0.113166
0.033842 0.226484 -0.203623
0.003717 0.187305 -0.158763
0.061070 0.213095 -0.258721
-0.071165 0.243495 0.072926
-0.103643 0.291992 0.106453
-0.109983 0.278280 0.116992
-0.011852 0.273693 0.006436
-0.042819 0.291749 -0.041892
-0.028496 0.227962 0.120477
0.039947 0.245274 -0.198591
0.066966 0.198772 -0.243047
0.063765 0.194624 -0.241455
-0.041092 0.283813 -0.061311
-0.034109 0.239377 0.140861
-0.048886 0.338806 0.094993
-0.039994 0.305137 -0.050785
-0.094273 0.275065 0.081552
-0.035143 0.251944 0.062673
-0.127126 0.289938 0.124330
-0.018946 0.217972 0.071772
-0.028269 0.268598 -0.024043
-0.108675 0.287445 0.117059
0.032957 0.242107 -0.211133
-0.041899 0.275073 0.079191
-0.004703 0.190931 -0.140941
-0.067437 0.287713 0.083677
0.033166 0.204293 -0.112970
-0.019509 0.217757 0.078522
-0.009652 0.246754 0.045333
0.054179 0.201986 -0.087447
0.027565 0.162744 -0.191208
-0.052323 0.305829 -0.067811
-0.028435 0.223025 0.073738
-0.048875 0.345346 0.105938
-0.057545 0.250495 0.102879
0.053883 0.218066 -0.096777
-0.072907 0.246657 0.070056
0.065946 0.211935 -0.261816
0.008545 0.202717 -0.186823
-0.122601 0.307017 0.108647
-0.010777 0.215514 0.061692
-0.031144 0.229744 0.129545
-0.008557 0.156630 -0.127803
-0.002638 0.270225 -0.009356
-0.089814 0.261144 0.108431
0.077417 0.219902 -0.255470
0.027258 0.210409 -0.184637
0.074392 0.211566 -0.261736
0.013401 0.161013 -0.164669
0.031412 0.265253 -0.190877
-0.005784 0.174221 -0.116935
0.008599 0.240858 0.019690
0.061426 0.222117 -0.245792
-0.039277 0.256534 0.064952
0.011544 0.161074 -0.161677
-0.066088 0.239302 0.078322
-0.078243 0.353920 0.068333
-0.100322 0.258374 0.089234
-0.004692 0.226506 0.039831
0.005231 0.245239 0.013933
-0.053461 0.234703 0.076355
-0.054875 0.298828 0.073856
0.012720 0.167014 -0.199354
0.009465 0.203510 -0.111785
0.046058 0.278454 -0.197412
-0.068983 0.331615 0.092062
-0.127196 0.301195 0.104604
-0.049158 0.235341 0.156641
0.015018 0.201102 -0.210461
-0.013574 0.262287 -0.018900
-0.120620 0.305868 0.121859
-0.044607 0.288074 -0.048171
0.025799 0.204917 -0.091411
0.062905 0.218110 -0.234515
0.068391 0.221234 -0.241991
0.057503 0.223113 -0.090649
-0.021171 0.241628 0.053235
-0.039720 0.336434 0.113562
0.000793 0.268239 0.011402
-0.042345 0.237971 0.063175
-0.093642 0.404167 0.010386
0.026545 0.207585 -0.093196
0.024211 0.252648 -0.215983
0.074779 0.231832 -0.268175
0.059604 0.203748 -0.083017
-0.024810 0.297459 -0.047584
-0.023290 0.265281 -0.012427
0.018210 0.259795 -0.204093
-0.013834 0.266758 0.011571
-0.011119 0.181330 -0.113719
0.013565 0.197294 -0.210798
-0.001513 0.253785 0.054924
0.032197 0.201035 -0.114387
0.027441 0.243056 -0.187905
-0.026594 0.268738 -0.030548
0.007731 0.230528 0.029024
0.011839 0.188537 -0.210591
-0.001904 0.190130 -0.108959
0.024680 0.207608 -0.095820
0.041790 0.170888 -0.194484
0.054485 0.210697 -0.252831
0.058458 0.217969 -0.236009
0.027788 0.167174 -0.179257
0.047534 0.214274 -0.232724
0.033333 0.207049 -0.111712
-0.051330 0.266542 0.067240
0.029336 0.223074 -0.186350
0.037026 0.242905 -0.207674
0.031023 0.252565 -0.188596
-0.029831 0.300830 -0.068003
-0.044102 0.333704 0.100543
0.052355 0.221418 -0.078492
-0.079838 0.279719 0.093610
-0.086780 0.273575 0.078509
0.031166 0.191504 -0.098673
0.010878 0.249289 -0.210458
0.022003 0.173968 -0.169399
0.062327 0.212736 -0.260116
0.030975 0.175144 -0.178316
-0.030312 0.271114 -0.020587
-0.075103 0.344752 0.087497
0.000157 0.264730 -0.004771
-0.002840 0.218345 0.047003
-0.032728 0.272459 -0.029969
-0.120800 0.298976 0.098758
0.005223 0.178993 -0.117696
0.025628 0.197969 -0.118630
0.033421 0.169732 -0.183574
-0.007233 0.193730 -0.135725
0.037183 0.209322 -0.223295
0.011832 0.206331 -0.187785
0.033747 0.165448 -0.191120
-0.125696 0.285847 0.118715
0.073818 0.231233 -0.264893
-0.003281 0.225544 0.039219
-0.053001 0.271429 0.101832
-0.095525 0.253170 0.092113
0.022470 0.170448 -0.171406
-0.122599 0.309615 0.119712
-0.018491 0.153203 -0.115118
0.051270 0.213212 -0.222689
-0.046836 0.289815 -0.068746
0.004100 0.194305 -0.170989
0.009013 0.201987 -0.119679
-0.007960 0.245991 0.027559
-0.116468 0.300734 0.100514
-0.015176 0.253077 0.063837
0.044451 0.214987 -0.100185
-0.014337 0.285451 -0.027718
-0.046102 0.282762 0.090354
-0.130861 0.310575 0.123481
-0.022112 0.278892 -0.007056
-0.043689 0.237238 0.064218
-0.003761 0.165099 -0.128682
0.045610 0.263657 -0.197238
-0.011144 0.252119 0.013393
-0.002364 0.210749 0.059223
0.017274 0.255207 -0.223507
-0.018203 0.219713 0.063686
-0.005800 0.174308 -0.116833
0.045889 0.194406 -0.241065
-0.043881 0.236288 0.094051
0.068234 0.205288 -0.230149
-0.042962 0.295572 -0.044898
-0.027030 0.274914 -0.010781
-0.092485 0.403432 0.006138
-0.024841 0.265845 -0.015309
0.028748 0.231341 -0.209379
0.017355 0.206963 -0.108730
-0.000323 0.197463 -0.127361
-0.020285 0.280241 -0.045730
-0.058379 0.292060 0.072705
-0.044149 0.276168 0.092639
-0.031623 0.138317 -0.102157
0.043853 0.210063 -0.236665
-0.048528 0.293560 -0.073918
-0.049592 0.129499 -0.053562
0.039189 0.280815 -0.201624
0.069584 0.204681 -0.236992
0.037491 0.242349 -0.206367
-0.066976 0.310408 0.078159
0.064249 0.200823 -0.219944
-0.058229 0.319245 0.072713
-0.052753 0.235320 0.086957
-0.020756 0.255968 0.069178
0.037055 0.273662 -0.191310
-0.037748 0.303701 -0.048115
0.055582 0.203044 -0.082407
-0.017340 0.259764 -0.011999
-0.076496 0.263614 0.108457
-0.093486 0.253567 0.080391
-0.081140 0.245951 0.094098
-0.095427 0.254090 0.085310
0.004957 0.195607 -0.172982
0.049815 0.220863 -0.080892
0.047730 0.208871 -0.245696
-0.053054 0.328674 0.111952
-0.062495 0.335354 0.099110
0.003392 0.155244 -0.156066
-0.014936 0.283930 -0.013615
-0.031415 0.288655 -0.024665
0.033109 0.184719 -0.229176
-0.007840 0.262183 -0.014932
-0.066982 0.354230 0.085348
0.032338 0.275451 -0.204663
-0.081939 0.250947 0.071858
-0.040672 0.228299 0.164763
-0.018885 0.191111 -0.140790
-0.049440 0.273529 0.099791
-0.065823 0.286274 0.079066
-0.039111 0.349030 0.114707
0.079031 0.219247 -0.268579
0.051551 0.181151 -0.229932
-0.027178 0.253610 0.064103
0.027676 0.181559 -0.222929
0.029316 0.236127 -0.187984
0.016745 0.177426 -0.211013
0.024120 0.161487 -0.186929
0.016564 0.206033 -0.182633
0.047233 0.207005 -0.104142
0.045028 0.211482 -0.219984
0.076102 0.220166 -0.277122
0.008320 0.181615 -0.127229
0.020230 0.254575 -0.220365
0.023805 0.242299 -0.189862
-0.014633 0.256858 0.082718
0.012320 0.182275 -0.116895
0.008244 0.202899 -0.117521
-0.041488 0.264620 0.099728
0.039690 0.245985 -0.205402
0.010923 0.203201 -0.117835
0.024440 0.262443 -0.210622
-0.072596 0.330565 0.086062
-0.128068 0.306365 0.111464
0.043257 0.201005 -0.198373
0.034143 0.170606 -0.183806
-0.032686 0.265913 0.080787
-0.111050 0.271682 0.103613
-0.041565 0.312867 -0.068302
-0.041378 0.292393 -0.040024
0.016607 0.169215 -0.204003
0.062409 0.205503 -0.088481
0.017221 0.247963 -0.198053
0.076900 0.228385 -0.262419
0.013077 0.184054 -0.121807
0.009490 0.200726 -0.203473
-0.006113 0.273383 -0.016698
-0.113283 0.299610 0.116120
0.006413 0.166992 -0.197667
0.038557 0.280539 -0.202586
0.034044 0.165706 -0.191079
-0.118792 0.303383 0.121884
0.018851 0.195932 -0.095779
-0.041018 0.237289 0.063058
-0.046159 0.293826 -0.048311
-0.021670 0.286902 -0.052117
-0.042520 0.335649 0.116774
0.018365 0.265430 -0.215251
-0.062869 0.326520 0.100740
0.013928 0.259869 -0.203998
-0.099838 0.262072 0.082870
0.061268 0.189271 -0.234433
-0.043408 0.343819 0.128301
0.039001 0.212225 -0.105749
0.059490 0.216635 -0.231427
0.022103 0.241816 -0.191094
-0.038674 0.298177 -0.042064
0.004809 0.194167 -0.131506
-0.013883 0.218011 0.061202
-0.013374 0.237909 0.045527
-0.024275 0.258113 0.071974
-0.054520 0.340509 0.104142
-0.037401 0.310479 -0.076416
0.011701 0.157289 -0.177568
-0.075245 0.278689 0.084068
-0.008901 0.248825 0.023407
-0.079139 0.360234 0.072586
0.030772 0.164851 -0.186462
-0.014031 0.276382 0.001393
-0.043061 0.283861 -0.057337
-0.072414 0.281498 0.088997
-0.032449 0.297777 -0.074113
-0.030682 0.285795 -0.063486
-0.045258 0.282232 0.081181
-0.047289 0.294997 -0.077715
-0.024827 0.267246 -0.011507
0.039642 0.243887 -0.202292
-0.104630 0.278693 0.086540
0.028157 0.207416 -0.217133
0.067255 0.216383 -0.266751
0.067964 0.199571 -0.241824
-0.042313 0.282174 -0.051496
0.018876 0.242886 -0.195747
-0.066392 0.355451 0.083863
-0.011830 0.254946 0.072196
-0.031417 0.244248 0.105470
0.049120 0.209250 -0.214834
0.015318 0.262787 -0.207150
0.054779 0.185913 -0.235188
-0.119253 0.291697 0.095935
-0.012357 0.167075 -0.117329
-0.074255 0.241669 0.087751
0.018646 0.230447 -0.197338
-0.079288 0.347563 0.078156
-0.048746 0.230618 0.162644
-0.052619 0.342592 0.116315
0.057653 0.206712 -0.096910
0.055870 0.201587 -0.208673
-0.027818 0.298475 -0.063850
-0.077722 0.276114 0.103174
-0.069918 0.325094 0.074504
0.046418 0.267377 -0.197325
0.009693 0.199279 -0.204590
-0.036672 0.284874 -0.064956
0.025354 0.194809 -0.178455
0.039963 0.167945 -0.197924
-0.043440 0.276732 0.090202
-0.005412 0.273787 -0.014291
0.056434 0.185700 -0.205384
0.039309 0.214930 -0.099890
-0.058385 0.311584 0.072537
-0.016810 0.287987 -0.029976
-0.066027 0.250243 0.103028
-0.074917 0.271269 0.073734
-0.045980 0.230467 0.169623
-0.016719 0.286723 -0.036403
0.054167 0.180798 -0.202936
0.045439 0.183202 -0.233713
0.017849 0.218183 -0.188015
0.048798 0.210169 -0.246697
-0.012174 0.181582 -0.114220
-0.095985 0.273043 0.080458
0.017610 0.189454 -0.170477
0.012308 0.184585 -0.163318
-0.008177 0.242629 0.038659
0.033418 0.174904 -0.181028
0.052221 0.216600 -0.074076
-0.105149 0.269983 0.112104
-0.006002 0.160678 -0.128735
0.028224 0.205058 -0.114231
-0.011462 0.253046 0.004789
0.026633 0.173071 -0.214317
-0.028988 0.231811 0.104882
0.018143 0.205250 -0.098809
-0.028563 0.287020 -0.061425
-0.046789 0.331651 0.115278
0.045908 0.219324 -0.091531
-0.049146 0.242600 0.158389
-0.019089 0.257968 0.075375
-0.053491 0.326955 0.078042
-0.051848 0.255416 0.103663
-0.127688 0.297290 0.130147
-0.057259 0.336728 0.106086
-0.076000 0.347275 0.086720
0.062611 0.218074 -0.261754
-0.051699 0.307368 -0.069215
0.000758 0.189419 -0.137639
-0.048595 0.258234 0.103558
0.010019 0.161057 -0.189972
0.027039 0.181556 -0.222359
-0.019178 0.219416 0.065818
-0.045716 0.238268 0.064196
-0.057482 0.269591 0.068482
-0.030068 0.244244 0.058345
-0.018879 0.143727 -0.121283
-0.054292 0.340388 0.109994
-0.020293 0.248760 0.104485
-0.008091 0.273098 0.008913
-0.071843 0.341438 0.068761
-0.047650 0.127703 -0.056025
-0.064181 0.295822 0.075923
0.043235 0.196612 -0.096783
-0.019262 0.171276 -0.114098
-0.038772 0.270890 0.079601
-0.020283 0.255740 0.094972
0.072546 0.228110 -0.259353
-0.037032 0.227590 0.143463
-0.034474 0.302857 -0.046711
0.050999 0.214489 -0.247885
0.041553 0.215518 -0.098625
-0.049448 0.298469 -0.055001
-0.075542 0.339667 0.084576
0.009559 0.161022 -0.158571
-0.000600 0.152788 -0.151698
0.044082 0.193014 -0.240011
0.012073 0.270954 -0.224030
-0.095131 0.279739 0.085209
0.043000 0.208737 -0.080418
0.080596 0.224589 -0.271225
-0.053170 0.262750 0.066074
0.033088 0.231551 -0.206913
-0.001078 0.198713 -0.122433
-0.027556 0.229716 0.114774
-0.021794 0.243168 0.054399
-0.067341 0.286227 0.082164
-0.078384 0.265780 0.108723
0.002896 0.209466 0.053198
-0.059654 0.257454 0.064963
-0.005503 0.194880 -0.116625
0.013217 0.160032 -0.187824
0.047938 0.195221 -0.197368
-0.009942 0.259730 0.022148
0.080244 0.222305 -0.267588
-0.065248 0.278551 0.074179
0.030983 0.209618 -0.212016
-0.042284 0.233892 0.146991
-0.026179 0.267431 -0.013914
0.039557 0.279794 -0.195584
-0.041186 0.343356 0.123217
-0.018311 0.145812 -0.120140
-0.027334 0.224863 0.094195
-0.102545 0.285284 0.112945
0.017460 0.251503 -0.220674
-0.045695 0.228609 0.163449
-0.039259 0.285610 -0.034285
-0.037616 0.278058 -0.036953
0.007705 0.186067 -0.105899
0.010752 0.191624 -0.101364
-0.055824 0.297893 0.073433
0.051964 0.186120 -0.197901
0.067764 0.223727 -0.247212
0.080521 0.222139 -0.269142
-0.038888 0.295887 -0.077885
0.032819 0.193298 -0.109001
0.015928 0.243887 -0.207032
-0.048578 0.321203 0.089071
0.040303 0.177270 -0.225976
-0.046440 0.309197 -0.079896
-0.014503 0.215683 0.070203
0.015274 0.263223 -0.207444
-0.011819 0.168542 -0.117414
-0.068637 0.328781 0.071753
0.014828 0.186172 -0.122245
0.041810 0.196086 -0.239511
-0.022608 0.266507 -0.006684
0.057968 0.205489 -0.078436
-0.044941 0.281048 0.080950
-0.001512 0.170006 -0.127985
-0.020886 0.250347 0.060021
0.032307 0.203747 -0.188958
0.018686 0.168162 -0.203953
0.035750 0.207772 -0.228077
0.029360 0.268664 -0.195891
-0.032534 0.272312 -0.029720
-0.000676 0.233182 0.029531
-0.061297 0.240033 0.092112
-0.016652 0.284948 -0.037837
0.045825 0.207684 -0.210791
-0.085527 0.247790 0.094459
0.052998 0.185331 -0.199390
0.077009 0.216287 -0.261062
-0.106233 0.265728 0.094661
-0.080070 0.245878 0.094780
-0.114154 0.297321 0.098382
0.012148 0.249110 -0.206481
0.075090 0.219802 -0.249570
-0.020249 0.272229 -0.001086
-0.044653 0.244038 0.172163
0.012848 0.179180 -0.159892
-0.078995 0.276138 0.103701
-0.042198 0.335727 0.108153
-0.005796 0.252609 0.000341
-0.042941 0.232632 0.089553
0.065766 0.195373 -0.225479
-0.034235 0.289936 -0.029192
-0.063936 0.331773 0.099632
0.055130 0.205638 -0.212840
-0.037076 0.245042 0.060328
0.005959 0.163508 -0.150423
-0.005202 0.211402 0.067279
0.069851 0.203328 -0.247366
0.004369 0.215067 0.042126
-0.049391 0.310303 -0.069332
-0.076838 0.339681 0.076630
-0.029491 0.228484 0.123779
-0.012074 0.145888 -0.142373
0.074783 0.217221 -0.272505
0.008401 0.191743 -0.206798
-0.089920 0.248625 0.086659
-0.047165 0.350323 0.126530
-0.015450 0.220711 0.057082
0.047119 0.270247 -0.200793
-0.024731 0.240585 0.114579
0.061512 0.205177 -0.218294
0.042048 0.183989 -0.233413
0.049780 0.199629 -0.089824
0.008548 0.161355 -0.190375
-0.054538 0.270675 0.102561
0.035268 0.184314 -0.182483
-0.006614 0.154271 -0.133771
-0.080816 0.266657 0.071900
0.080066 0.221750 -0.266236
0.026855 0.184856 -0.224008
0.001648 0.177160 -0.118423
-0.051899 0.234759 0.071881
0.019200 0.264865 -0.219064
0.051337 0.221518 -0.090511
-0.108736 0.294585 0.098510
0.054191 0.211113 -0.252375
0.011946 0.204421 -0.109181
-0.114056 0.293915 0.094921
0.051440 0.206962 -0.250216
-0.036719 0.257520 0.066304
-0.072995 0.272464 0.074167
0.046590 0.219570 -0.084214
0.047066 0.185277 -0.235874
-0.002486 0.212294 0.055133
-0.049982 0.301236 0.080959
-0.005582 0.227411 0.040029
-0.040256 0.339136 0.107683
-0.008390 0.263343 0.021204
0.018758 0.204467 -0.097580
0.016322 0.159397 -0.181800
0.011218 0.188529 -0.102529
-0.048706 0.292774 0.088383
-0.039163 0.282427 -0.034591
0.012361 0.210720 -0.196312
-0.021201 0.219985 0.091590
0.029002 0.261848 -0.191865
-0.033745 0.273711 -0.029499
0.050448 0.205416 -0.100086
0.060297 0.204478 -0.087970
0.010987 0.210081 0.041788
0.045704 0.260899 -0.199942
0.012112 0.195997 -0.209757
-0.060903 0.243647 0.097690
-0.050594 0.344384 0.106630
0.044079 0.219154 -0.087615
-0.011211 0.270950 0.010419
0.029409 0.173588 -0.216321
0.005750 0.195445 -0.172646
-0.121282 0.301046 0.101909
0.007078 0.261936 0.016056
-0.018972 0.218258 0.070185
-0.037208 0.279682 -0.051998
0.005311 0.177975 -0.147907
0.030096 0.213543 -0.187806
-0.094992 0.252508 0.091692
0.051656 0.213788 -0.248877
0.043107 0.212125 -0.226478
0.007670 0.264076 -0.207960
0.027615 0.194101 -0.226811
0.042185 0.207652 -0.106963
-0.024122 0.169846 -0.112575
0.052335 0.187913 -0.198183
-0.100308 0.263432 0.107259
-0.007977 0.246741 0.033855
-0.020131 0.142105 -0.121516
-0.023647 0.274859 -0.005848
0.031871 0.213831 -0.192236
0.009794 0.191013 -0.129253
-0.062623 0.318136 0.072344
0.065824 0.222342 -0.244386
0.024345 0.259861 -0.196901
-0.075605 0.342141 0.085156
0.031536 0.205652 -0.088203
0.011126 0.194576 -0.099924
-0.043001 0.310907 -0.062621
-0.026760 0.279017 -0.012105
0.057120 0.209726 -0.098631
0.032713 0.222441 -0.190943
-0.070879 0.244543 0.071726
-0.007314 0.242775 0.031887
0.020462 0.174810 -0.211818
0.020461 0.207168 -0.112525
0.044105 0.204769 -0.241611
-0.047371 0.283754 0.077132
-0.075084 0.363545 0.076894
-0.050362 0.254747 0.063338
-0.011227 0.148175 -0.133075
-0.008605 0.250375 0.028913
-0.071968 0.257569 0.067589
-0.008261 0.248617 0.044690
-0.117602 0.278767 0.110395
-0.010748 0.256202 0.022086
0.010609 0.186473 -0.162955
-0.055300 0.313314 0.074587
-0.118496 0.278755 0.107053
-0.000623 0.190153 -0.138487
0.060656 0.183530 -0.221735
0.064952 0.213725 -0.262458
-0.126185 0.293815 0.100895
0.038533 0.240950 -0.202807
-0.012026 0.253624 0.010849
-0.039397 0.312274 -0.074836
0.040636 0.262210 -0.211696
0.038704 0.208541 -0.209088
-0.042143 0.284733 -0.062002
-0.112616 0.273292 0.097735
0.056123 0.211611 -0.254480
0.032096 0.275213 -0.196970
0.023186 0.262123 -0.205503
-0.109650 0.296536 0.106283
0.067516 0.227282 -0.265130
-0.072946 0.279808 0.082426
0.024144 0.180556 -0.171639
-0.047521 0.129192 -0.064867
-0.034428 0.306177 -0.054120
0.032003 0.210641 -0.089229
0.033307 0.223747 -0.191947
0.070057 0.209386 -0.234524
-0.000783 0.222209 0.039801
0.014052 0.176998 -0.160782
0.028038 0.211406 -0.209888
-0.027311 0.278293 -0.051083
-0.055919 0.298397 0.093976
-0.097692 0.279549 0.084804
0.021430 0.260750 -0.212809
0.060200 0.207321 -0.255950
-0.061167 0.333471 0.102324
-0.047679 0.329971 0.089794
-0.026839 0.270471 -0.035808
-0.007193 0.231314 0.038537
0.037618 0.207923 -0.230768
0.039972 0.185116 -0.233185
0.024336 0.234423 -0.208502
0.065076 0.214890 -0.263631
-0.050537 0.349033 0.115672
0.049104 0.196200 -0.199031
0.070627 0.219982 -0.243236
-0.019056 0.278709 -0.042654
-0.090836 0.254516 0.076379
0.033455 0.250027 -0.188344
-0.003449 0.210805 0.061778
-0.045060 0.291637 -0.046028
-0.038469 0.268677 0.094024
0.032658 0.276158 -0.201236
-0.028955 0.280199 -0.015385
-0.013156 0.260700 -0.016080
0.044877 0.279597 -0.202871
-0.116092 0.300398 0.105050
-0.072449 0.341163 0.069039
-0.024928 0.296400 -0.052713
0.034681 0.201481 -0.086769
-0.049520 0.288864 0.077140
-0.066826 0.267230 0.069162
-0.050400 0.130823 -0.054794
-0.030655 0.271861 -0.035667
0.017020 0.213856 -0.205145
-0.048559 0.272374 0.070111
-0.001390 0.198167 -0.118135
-0.016087 0.232113 0.049030
0.033032 0.189113 -0.231096
0.011032 0.253326 0.018433
-0.067798 0.283161 0.081154
0.012701 0.270681 -0.216116
0.009189 0.157339 -0.162860
0.001013 0.152734 -0.157474
0.063768 0.207224 -0.092021
0.048506 0.199986 -0.091663
0.076025 0.217390 -0.270550
-0.008612 0.279123 -0.016352
0.014922 0.205385 -0.114690
0.064260 0.196471 -0.244265
0.043214 0.201455 -0.106254
-0.026642 0.227220 0.116169
-0.034740 0.230556 0.139384
-0.002522 0.159254 -0.136857
-0.005489 0.251912 0.046574
-0.013595 0.284205 -0.017390
-0.003754 0.253565 0.044189
0.074378 0.226154 -0.254869
-0.034616 0.230362 0.065148
0.037062 0.209292 -0.223919
-0.003776 0.189117 -0.152568
-0.105626 0.274760 0.087067
0.053871 0.223793 -0.081470
-0.052910 0.313871 0.095627
0.004190 0.196665 -0.106279
-0.027917 0.234834 0.112945
0.003982 0.187882 -0.135308
0.041412 0.281068 -0.202380
0.006403 0.197199 -0.202263
0.044586 0.169906 -0.206809
-0.015925 0.269596 0.006537
0.034001 0.269969 -0.190236
-0.043416 0.344349 0.128493
0.008232 0.211347 0.042764
-0.012624 0.277651 -0.029776
-0.044969 0.283187 0.083916
0.000849 0.189781 -0.137201
-0.061386 0.293370 0.074248
0.044812 0.212209 -0.104074
-0.031592 0.224380 0.079634
-0.075456 0.243182 0.076293
-0.041722 0.346047 0.127178
-0.109757 0.282783 0.118427
-0.027954 0.270147 -0.034851
-0.066509 0.307723 0.079562
-0.091711 0.265085 0.110517
0.014666 0.185911 -0.121852
0.038415 0.213461 -0.103325
-0.045723 0.273069 0.097632
0.003410 0.243164 0.016155
0.013510 0.264023 -0.207092
-0.086716 0.261507 0.072104
-0.056908 0.263634 0.066516
-0.036013 0.304515 -0.049702
0.009046 0.180609 -0.123339
-0.064189 0.329534 0.099160
-0.033960 0.247142 0.104013
0.025605 0.209878 -0.101342
-0.015620 0.217177 0.090631
0.053058 0.211167 -0.101078
0.044183 0.176776 -0.225642
-0.073123 0.337527 0.070868
-0.008131 0.244591 0.037879
-0.012858 0.270408 0.009523
-0.007157 0.251244 0.032975
0.054334 0.222930 -0.089960
-0.007188 0.260975 0.025676
0.018991 0.199668 -0.215262
-0.042655 0.338996 0.104238
-0.005335 0.251811 0.052647
-0.003891 0.172565 -0.120495
-0.125684 0.305975 0.129363
-0.003183 0.243188 0.018329
-0.042112 0.284160 -0.060689
-0.041089 0.230512 0.146985
-0.091067 0.249240 0.089863
0.038468 0.209865 -0.219865
-0.000900 0.257260 0.040528
-0.058448 0.305271 0.073231
-0.023790 0.249318 0.104300
0.026118 0.195901 -0.092585
0.013630 0.182743 -0.115064
-0.060433 0.302496 0.094093
-0.113209 0.282912 0.119130
0.035847 0.237688 -0.191865
-0.001689 0.269110 0.016061
-0.020623 0.190008 -0.132449
0.054285 0.212648 -0.223065
0.021374 0.242122 -0.192080
0.028798 0.214833 -0.185651
-0.029713 0.227113 0.126811
0.022664 0.261848 -0.201621
0.034233 0.263704 -0.188609
-0.063919 0.251993 0.104106
0.031141 0.179904 -0.178144
-0.059415 0.251307 0.103407
0.037347 0.278057 -0.194578
0.019913 0.214706 -0.185187
0.014163 0.250735 0.023803
-0.053375 0.234626 0.083412
0.015061 0.211985 -0.202294
0.037661 0.177554 -0.224977
-0.046206 0.232180 0.084432
0.037314 0.198393 -0.109669
-0.027275 0.236310 0.112759
-0.044042 0.287086 -0.047971
-0.010079 0.148795 -0.134917
-0.052385 0.344656 0.117717
0.066822 0.210005 -0.230460
0.016106 0.159309 -0.182082
-0.023752 0.222100 0.066089
-0.045553 0.330240 0.110814
-0.126242 0.289440 0.124234
-0.121504 0.288293 0.123057
-0.053422 0.339134 0.095105
-0.066449 0.340592 0.093147
0.003270 0.220738 0.038060
-0.122167 0.282316 0.109925
0.004690 0.153569 -0.170048
0.043748 0.211866 -0.222987
0.013257 0.175702 -0.207636
-0.039002 0.226505 0.157727
-0.000341 0.151997 -0.170883
0.046471 0.266273 -0.203365
-0.051211 0.298902 -0.058982
0.053659 0.210549 -0.252097
-0.130082 0.310196 0.119584
0.048167 0.211417 -0.245189
0.066249 0.214412 -0.232554
0.040915 0.168101 -0.200861
0.020438 0.171972 -0.209225
0.012012 0.163338 -0.194022
0.031473 0.211921 -0.189858
-0.005717 0.191362 -0.158428
0.033408 0.230998 -0.189575
0.019556 0.231488 -0.202570
-0.101807 0.278459 0.084401
0.043960 0.180099 -0.191224
-0.010102 0.257018 -0.008727
-0.028800 0.254013 0.064346
-0.018556 0.187198 -0.122318
0.010407 0.179891 -0.158071
-0.026674 0.277393 -0.010969
0.001983 0.184884 -0.109245
0.061820 0.199430 -0.249952
-0.016234 0.280658 -0.005537
-0.121975 0.298052 0.127076
-0.015982 0.191844 -0.132512
-0.022821 0.188553 -0.130375
0.040185 0.281208 -0.202720
-0.023951 0.276245 -0.007320
0.013116 0.189552 -0.126472
-0.042186 0.312229 -0.065812
-0.020428 0.288404 -0.047533
0.044737 0.206238 -0.206873
0.015738 0.198749 -0.212343
-0.015440 0.255418 0.071356
-0.070097 0.240090 0.085218
-0.039950 0.338673 0.117224
-0.028194 0.224812 0.066100
0.040410 0.169187 -0.195041
-0.038584 0.280886 -0.054522
-0.054454 0.250693 0.102523
0.040045 0.169032 -0.194718
-0.060541 0.337391 0.100047
-0.112086 0.272649 0.103913
-0.015806 0.185506 -0.117928
0.079781 0.226002 -0.278178
-0.118442 0.300858 0.102536
-0.051275 0.296812 -0.059155
0.072643 0.213786 -0.265187
-0.055705 0.237681 0.166722
0.065381 0.225401 -0.257766
-0.007429 0.212161 0.076475
0.004701 0.153769 -0.165445
0.025032 0.172316 -0.173281
0.000670 0.174943 -0.124764
-0.102265 0.265512 0.108446
-0.064903 0.291467 0.077688
-0.068019 0.323363 0.073748
-0.049557 0.297811 0.080734
-0.101779 0.265771 0.084142
0.013572 0.199908 -0.209435
0.037957 0.238207 -0.198689
-0.059329 0.336725 0.072756
-0.038495 0.286251 -0.032514
-0.060877 0.283706 0.097502
-0.059255 0.345461 0.078224
0.008599 0.170076 -0.153004
-0.036866 0.267391 0.077093
-0.037282 0.246199 0.102351
-0.023298 0.177420 -0.115510
-0.050026 0.290091 0.077163
-0.045344 0.288909 -0.068300
-0.001677 0.152790 -0.176172
-0.062190 0.296016 0.092326
0.015907 0.186445 -0.167168
-0.037933 0.346020 0.108441
-0.008013 0.191651 -0.141214
-0.010181 0.148206 -0.136456
-0.103429 0.291615 0.100358
-0.046026 0.282687 0.079554
0.033320 0.165226 -0.199442
-0.071313 0.262571 0.107909
0.046145 0.269440 -0.205413
0.002917 0.193016 -0.107325
0.034101 0.204599 -0.229125
0.064884 0.223088 -0.264457
-0.109657 0.276187 0.115608
-0.018991 0.257372 0.090199
-0.010307 0.251165 0.055584
0.043761 0.172297 -0.217284
0.008514 0.237829 0.022769
-0.046566 0.282988 0.078394
-0.014039 0.249600 0.056773
0.009703 0.247226 0.016142
0.020961 0.218369 -0.185724
-0.023484 0.156094 -0.109906
-0.049282 0.301996 0.083842
0.053042 0.211578 -0.073690
0.007772 0.202897 -0.115916
-0.089052 0.281647 0.090852
-0.113059 0.273060 0.106911
-0.014329 0.215370 0.076537
-0.033866 0.262013 0.096944
-0.026035 0.224760 0.099545
-0.056357 0.241607 0.167093
-0.063229 0.325692 0.100210
0.018794 0.196458 -0.123169
0.048128 0.205903 -0.103228
-0.027140 0.225083 0.096740
-0.065853 0.263278 0.067568
-0.026921 0.226777 0.101126
-0.056272 0.340284 0.080714
-0.021869 0.288796 -0.021660
-0.060424 0.262049 0.066140
-0.018982 0.157287 -0.114121
-0.028691 0.247482 0.059262
0.041538 0.276827 -0.209257
0.008158 0.185603 -0.159813
0.003539 0.169347 -0.141996
-0.041821 0.293495 -0.041543
0.010176 0.161122 -0.190156
-0.039913 0.256347 0.102314
0.033637 0.196492 -0.232500
-0.082916 0.280285 0.089031
0.027061 0.162575 -0.186412
-0.126205 0.287404 0.106484
0.050098 0.213328 -0.224132
0.013893 0.204235 -0.104541
-0.050861 0.290213 0.075574
0.007149 0.182111 -0.130284
-0.006302 0.268154 0.017595
0.045445 0.272778 -0.207434
-0.045248 0.237229 0.151049
-0.076193 0.278868 0.098286
-0.041395 0.335473 0.111852
-0.013592 0.256047 0.008229
-0.000148 0.152051 -0.156082
0.025891 0.208986 -0.183790
0.002252 0.209727 0.053571
-0.011713 0.259845 0.018561
0.001578 0.173202 -0.130608
-0.008693 0.254452 0.079273
-0.066108 0.305442 0.088017
-0.097914 0.285744 0.107562
-0.032125 0.263125 0.074129
-0.036361 0.228404 0.087566
0.055891 0.222245 -0.074151
-0.050500 0.293439 -0.061739
-0.046453 0.242657 0.174705
-0.046502 0.302915 -0.082509
-0.031684 0.296891 -0.036771
0.051352 0.187973 -0.196957
0.072831 0.213584 -0.264934
-0.047181 0.246718 0.168791
-0.027403 0.300202 -0.058462
0.008123 0.184163 -0.129640
0.053122 0.202382 -0.084107
0.052371 0.178726 -0.201501
0.058386 0.217746 -0.255904
0.052652 0.175851 -0.207837
-0.057938 0.255567 0.064484
0.064527 0.204093 -0.255640
0.022357 0.261847 -0.203699
0.060387 0.188526 -0.209237
-0.121043 0.304197 0.115449
-0.022686 0.152671 -0.110648
0.017292 0.163589 -0.196260
0.056663 0.203127 -0.253263
-0.053143 0.322478 0.077832
0.052851 0.213220 -0.100703
-0.050472 0.232432 0.164088
-0.048489 0.233012 0.172779
-0.092329 0.272421 0.078504
0.005996 0.178655 -0.127063
-0.059908 0.332025 0.071538
0.021633 0.233767 -0.206609
-0.025894 0.140598 -0.111872
-0.118062 0.305696 0.112317
-0.050319 0.264031 0.103120
-0.024572 0.247900 0.105643
-0.023805 0.167234 -0.111811
-0.062606 0.242865 0.096344
-0.058394 0.262626 0.105136
-0.056988 0.247123 0.100516
0.033545 0.203202 -0.229389
-0.048272 0.234085 0.088320
-0.051182 0.313519 0.079738
-0.096281 0.286890 0.099524
-0.012382 0.178379 -0.115079
-0.034767 0.144439 -0.097329
0.029398 0.195526 -0.092418
-0.000976 0.161017 -0.138234
0.040064 0.196027 -0.103757
-0.054300 0.338043 0.082464
0.040569 0.273568 -0.210999
0.022070 0.206408 -0.214269
0.021514 0.235249 -0.207326
0.035041 0.273518 -0.210368
-0.013362 0.227206 0.048345
-0.031929 0.276619 -0.021356
-0.041423 0.241655 0.061223
-0.002260 0.254968 -0.002335
-0.037229 0.226737 0.145048
-0.010217 0.153759 -0.127373
-0.084939 0.266466 0.109964
-0.023396 0.222228 0.065262
0.023406 0.197819 -0.220912
-0.019582 0.283445 -0.045697
-0.032185 0.263824 0.092421
-0.033425 0.263559 0.073631
0.029873 0.207502 -0.216341
-0.103488 0.291570 0.097784
-0.008621 0.213182 0.066595
-0.009305 0.251402 0.055478
-0.096438 0.273157 0.113598
0.031344 0.221569 -0.188806
0.019202 0.203993 -0.180344
-0.087343 0.280931 0.089538
0.014496 0.198584 -0.098809
-0.076831 0.242821 0.088273
-0.001128 0.255112 0.047145
-0.022696 0.273606 -0.041498
-0.040106 0.287622 -0.070003
-0.034816 0.231071 0.139218
0.038702 0.208990 -0.213104
-0.039103 0.350097 0.120378
0.027092 0.211029 -0.104919
-0.043830 0.309403 -0.081274
0.031400 0.221767 -0.204623
-0.080072 0.351461 0.078559
-0.068630 0.273148 0.104329
