ply
format ascii 1.0
element vertex 1024
property float x
property float y
property float z
end_header
-0.126375 0.219893 -0.067048
-0.167040 0.348379 0.034455
-0.151856 0.243228 -0.029867
-0.116286 0.156197 -0.028415
-0.125603 0.216058 -0.007748
-0.114504 0.386826 -0.003882
-0.007135 0.276915 -0.013231
-0.190565 0.247327 -0.042354
-0.004656 0.264224 0.024736
0.250728 0.404462 -0.017399
-0.103466 0.154061 -0.025741
-0.136667 0.146184 -0.052269
-0.170642 0.273874 -0.003344
-0.163089 0.274079 0.015871
0.205782 0.362514 -0.017104
-0.249099 0.257538 -0.046421
-0.347279 0.425083 -0.053503
-0.017824 0.283795 -0.011687
-0.167170 0.284247 0.021089
-0.187397 0.191184 -0.065437
-0.135141 0.243877 -0.037806
-0.176623 0.289305 -0.002067
-0.165352 0.265047 -0.009955
-0.194672 0.252959 -0.046743
0.166374 0.324852 -0.032352
-0.295028 0.324606 -0.080032
-0.187979 0.388845 0.035195
-0.083676 0.168664 -0.042619
0.170687 0.327893 -0.024906
0.118489 0.423121 -0.026555
-0.134925 0.227027 -0.062201
-0.012199 0.265976 0.014112
-0.113991 0.393919 0.013477
0.207109 0.316545 -0.015992
-0.210505 0.268715 -0.058843
-0.162314 0.257885 -0.010381
-0.181693 0.250993 -0.057887
-0.115072 0.210034 -0.065763
-0.169471 0.292497 0.025390
-0.212253 0.213635 -0.058843
-0.163007 0.330329 -0.001881
-0.117086 0.370515 0.018738
-0.326942 0.359280 -0.044905
-0.135718 0.343544 0.009174
-0.118504 0.226240 -0.013544
0.229514 0.395624 -0.022756
-0.130746 0.138380 -0.053695
-0.176308 0.284652 0.000976
-0.246877 0.405319 0.033656
-0.022572 0.284802 -0.014546
-0.190209 0.238626 -0.035906
-0.138247 0.254702 -0.031182
-0.160347 0.168742 -0.087525
-0.117937 0.162222 -0.026522
-0.261891 0.293365 -0.049019
-0.118418 0.148070 -0.033217
-0.099436 0.184708 -0.022021
-0.103107 0.385602 0.016962
-0.188724 0.226281 -0.014839
-0.149195 0.280191 0.015867
0.178914 0.325205 -0.016748
-0.130875 0.235249 -0.044449
-0.147046 0.154028 -0.083279
-0.149697 0.161403 -0.050176
-0.170382 0.272813 -0.002852
-0.157803 0.349666 0.009618
0.183772 0.327383 -0.014397
-0.258538 0.299960 -0.055389
-0.001973 0.271553 -0.005086
-0.161761 0.294502 -0.013883
-0.208795 0.381980 0.023995
-0.328422 0.384448 -0.055418
0.210992 0.319200 -0.019975
-0.257959 0.271924 -0.045592
0.024140 0.238435 0.034854
-0.096665 0.163227 -0.024651
-0.081917 0.168016 -0.058788
-0.204551 0.369104 0.019934
-0.016573 0.287363 -0.023147
-0.097035 0.393543 0.014064
-0.161048 0.347303 0.008659
-0.310908 0.351578 -0.061820
-0.175477 0.231957 -0.015519
0.166666 0.299482 -0.018886
-0.132887 0.173712 -0.027024
-0.126690 0.218136 -0.072164
-0.230967 0.250808 -0.043933
-0.120048 0.383667 -0.000651
-0.155825 0.246169 -0.018473
-0.157655 0.298201 -0.011822
-0.101196 0.383039 0.004152
-0.032021 0.273662 -0.040213
-0.140652 0.261723 0.007191
-0.109258 0.218024 -0.025810
-0.148685 0.313911 0.007673
-0.362690 0.425207 -0.035378
0.161139 0.291776 -0.022294
0.164967 0.313606 -0.039548
-0.125985 0.236898 -0.005086
-0.219058 0.276402 -0.077400
-0.141706 0.150342 -0.055890
-0.232793 0.243604 -0.046229
0.235444 0.374125 -0.025285
0.181400 0.353315 -0.025769
-0.212593 0.212494 -0.076692
-0.231119 0.242610 -0.045884
-0.175079 0.244766 -0.072218
-0.010812 0.258999 -0.012036
-0.168249 0.353830 0.029314
0.209210 0.329180 -0.015180
-0.130438 0.243138 -0.036205
0.005445 0.263525 0.013993
-0.108910 0.375297 0.014894
-0.206261 0.352415 0.022548
-0.009053 0.274104 -0.023082
-0.142763 0.333035 0.016380
-0.235105 0.283519 -0.055615
-0.029006 0.273262 -0.014862
-0.275899 0.299499 -0.046910
-0.271254 0.312863 -0.080058
-0.128031 0.151937 -0.037503
-0.093297 0.185766 -0.058560
-0.181561 0.377285 0.032266
-0.105089 0.405873 -0.001096
-0.138707 0.246701 0.004053
-0.129787 0.131796 -0.078402
-0.017833 0.286832 -0.019096
-0.353144 0.432896 -0.050180
-0.129552 0.256370 -0.020769
-0.130855 0.236014 -0.001519
-0.208210 0.214084 -0.084803
-0.221341 0.217487 -0.068362
0.225833 0.359956 -0.022237
-0.089861 0.182301 -0.039977
-0.174485 0.179801 -0.077060
-0.245636 0.403207 0.032282
-0.188457 0.381967 0.027574
0.168557 0.325270 -0.028108
-0.214894 0.270397 -0.079399
0.119390 0.422898 -0.018358
-0.147322 0.272701 -0.022853
-0.144616 0.283065 -0.014774
-0.136105 0.260213 -0.025320
-0.283494 0.320181 -0.066843
-0.150364 0.193339 -0.024005
-0.121447 0.375231 0.019677
-0.102581 0.182510 -0.020089
-0.333688 0.401747 -0.065617
-0.242671 0.287849 -0.054682
-0.136612 0.220674 -0.007516
-0.129279 0.233878 -0.045208
-0.152166 0.241242 -0.006761
-0.254503 0.316632 -0.078955
-0.193413 0.231992 -0.034508
-0.118213 0.373387 0.019790
-0.127685 0.229773 -0.049342
-0.337947 0.411071 -0.065739
-0.028009 0.268217 -0.026341
-0.351547 0.429548 -0.058989
-0.148913 0.282628 0.016021
-0.169681 0.290153 0.023875
-0.015750 0.280775 -0.005734
0.212613 0.364647 -0.017179
0.227406 0.356908 -0.025071
-0.358143 0.409455 -0.035639
-0.207389 0.224498 -0.043071
-0.147111 0.218265 -0.016938
-0.184962 0.341118 0.007422
-0.187813 0.211494 -0.029456
-0.245820 0.403566 0.034098
-0.097761 0.390867 -0.001359
-0.167412 0.281167 -0.013706
-0.330252 0.388613 -0.075567
-0.106689 0.208316 -0.050776
-0.136547 0.367699 0.005598
-0.212707 0.422560 0.037795
-0.189257 0.313361 0.026701
-0.178389 0.186288 -0.086150
-0.090086 0.145934 -0.028189
-0.159115 0.292869 -0.014593
-0.337213 0.400192 -0.045956
-0.213900 0.213615 -0.061896
-0.153893 0.231560 -0.027007
-0.109910 0.218482 -0.023724
-0.175247 0.181356 -0.081765
-0.180367 0.198178 -0.035551
-0.086139 0.161405 -0.032662
0.018490 0.240079 0.028021
-0.011113 0.279057 -0.004383
-0.024862 0.290896 -0.058336
-0.139578 0.280325 -0.007215
-0.233761 0.387395 0.027265
-0.158370 0.322659 0.030505
-0.168506 0.277317 -0.011844
-0.171117 0.358295 0.030173
-0.203534 0.400380 0.030468
-0.220119 0.423516 0.037437
-0.165587 0.196942 -0.024299
-0.169096 0.242099 -0.069168
-0.194434 0.232784 -0.035038
-0.166115 0.265776 -0.008204
-0.161736 0.170111 -0.057008
-0.008958 0.279376 -0.014612
0.212996 0.324414 -0.020294
-0.258391 0.394140 0.032008
0.202977 0.317349 -0.013046
-0.184957 0.209867 -0.008204
-0.016929 0.268425 0.006121
-0.039861 0.288074 -0.035796
-0.201547 0.341410 0.021810
-0.252115 0.280890 -0.047315
-0.214631 0.388440 0.027676
-0.161322 0.225122 -0.018585
-0.134668 0.142066 -0.056076
0.223220 0.352519 -0.021492
-0.337989 0.385154 -0.042261
-0.033474 0.273335 -0.034750
-0.143334 0.340329 0.001263
0.116655 0.419714 -0.026802
-0.181792 0.198302 -0.037800
-0.198770 0.234119 -0.036794
-0.036764 0.277448 -0.033844
-0.168852 0.229404 -0.016801
-0.181150 0.230127 0.008334
-0.195534 0.254164 -0.079989
-0.164169 0.210773 -0.012891
0.180559 0.320739 -0.014476
0.012833 0.256362 0.034142
-0.242185 0.303747 -0.071344
-0.309477 0.342184 -0.054798
-0.161530 0.237141 -0.043157
-0.222923 0.237839 -0.044630
-0.141454 0.281105 -0.011084
-0.222423 0.279241 -0.065183
-0.185137 0.246331 -0.042928
0.176693 0.355394 -0.029192
-0.186285 0.248322 -0.045638
-0.159692 0.335883 -0.000544
0.003190 0.260830 0.034053
-0.008737 0.270722 -0.022596
-0.254464 0.304733 -0.063067
-0.225753 0.284376 -0.071746
-0.126589 0.172460 -0.025040
-0.186018 0.229284 -0.016655
-0.207808 0.228174 -0.041919
-0.135887 0.145818 -0.051658
-0.218836 0.400778 0.033138
-0.209158 0.234310 -0.040565
-0.085278 0.168016 -0.076932
-0.339979 0.413419 -0.068532
-0.252224 0.300510 -0.059788
-0.342183 0.413171 -0.048057
0.000101 0.268712 0.014734
0.182758 0.354725 -0.025912
-0.135737 0.252836 0.002686
-0.106190 0.193236 -0.078922
-0.005022 0.273480 0.006170
-0.187231 0.212813 -0.014736
-0.316557 0.360021 -0.076451
-0.143732 0.225988 -0.008765
-0.182828 0.233430 0.001492
-0.166702 0.172798 -0.067104
0.013803 0.247045 0.021855
-0.128297 0.128784 -0.070717
-0.200906 0.231295 0.005300
-0.085470 0.173738 -0.059008
0.178393 0.317025 -0.014798
-0.295578 0.329031 -0.069096
0.169915 0.324911 -0.025742
-0.003530 0.259594 0.031919
-0.145955 0.295460 0.004300
-0.136330 0.224503 -0.072902
-0.205165 0.221161 -0.043031
-0.176347 0.186355 -0.050938
-0.010642 0.270843 0.010913
-0.134083 0.229607 -0.054758
0.177770 0.301744 -0.010116
-0.169797 0.237314 -0.081137
-0.188326 0.235454 0.014395
-0.183478 0.207009 -0.023446
-0.109248 0.403954 0.002834
-0.144102 0.273628 0.009681
-0.281225 0.318002 -0.075514
-0.078925 0.161997 -0.048581
-0.119680 0.386841 0.012771
0.244427 0.406182 -0.020615
-0.192473 0.235992 -0.034922
-0.136315 0.144414 -0.055328
-0.120031 0.199917 -0.013042
-0.207709 0.351129 0.026357
-0.185107 0.192561 -0.086375
-0.099720 0.393094 -0.003998
-0.007880 0.262755 0.022222
-0.172134 0.333323 0.000804
0.229555 0.377788 -0.020648
-0.161045 0.166916 -0.067670
-0.100751 0.386579 -0.001616
-0.197549 0.232898 0.002585
0.206440 0.324726 -0.014312
-0.253100 0.269468 -0.045505
-0.275968 0.315612 -0.065412
0.194893 0.355849 -0.018732
-0.241668 0.402058 0.029851
-0.193886 0.354550 0.014633
0.031915 0.224309 0.035260
-0.186159 0.193922 -0.086520
-0.095885 0.409108 0.009367
-0.147701 0.153737 -0.078282
-0.249404 0.266633 -0.045283
0.004817 0.249959 0.009336
-0.086373 0.174704 -0.042730
-0.003715 0.236914 0.029167
-0.158587 0.346109 0.026360
-0.303706 0.338171 -0.069213
-0.188425 0.322940 0.007221
-0.093582 0.182396 -0.066742
-0.018221 0.270301 0.002619
-0.156085 0.249645 -0.002646
-0.328960 0.363594 -0.044663
-0.192413 0.204528 -0.044620
-0.195242 0.405202 0.038072
-0.215356 0.403877 0.032062
-0.188452 0.194565 -0.084072
-0.175565 0.217020 0.002031
-0.151692 0.281103 0.017522
-0.250677 0.237599 -0.064583
-0.153388 0.179268 -0.034273
-0.152822 0.161267 -0.057747
0.240556 0.387478 -0.021040
-0.010458 0.279492 -0.024510
-0.127669 0.129673 -0.060741
0.219208 0.331223 -0.026519
-0.289789 0.305597 -0.045327
-0.023766 0.268528 -0.006499
0.029200 0.224494 0.033897
-0.185428 0.250175 -0.075948
-0.137262 0.365915 0.014959
-0.179247 0.330582 0.001800
-0.213669 0.370530 0.023792
0.013893 0.251917 0.023829
-0.163633 0.238250 -0.043741
-0.129465 0.234111 -0.045033
-0.187984 0.214601 -0.018953
-0.151899 0.234282 -0.062586
-0.096341 0.174503 -0.023505
-0.008099 0.264696 -0.018122
-0.235418 0.232150 -0.055256
-0.132510 0.221573 -0.075515
-0.116351 0.173937 -0.021128
-0.177231 0.370451 0.034731
-0.131214 0.351862 0.003153
-0.148475 0.319365 0.011066
-0.333006 0.385732 -0.046913
-0.115630 0.161019 -0.026226
-0.192754 0.399705 0.037058
-0.205746 0.395446 0.028306
-0.219645 0.275462 -0.061739
-0.103786 0.398136 0.017972
-0.216985 0.384865 0.027115
-0.153192 0.298231 -0.010108
-0.038121 0.283620 -0.031658
-0.153656 0.293887 0.020890
-0.142389 0.285458 0.003880
-0.146184 0.206409 -0.018623
-0.288218 0.290743 -0.044607
-0.028194 0.275206 -0.046208
-0.189039 0.313683 0.027802
-0.170277 0.205867 -0.012412
-0.184221 0.190302 -0.083413
-0.123611 0.128699 -0.052890
-0.146645 0.296049 0.008562
-0.293489 0.327822 -0.067032
-0.000139 0.239810 0.020652
-0.100933 0.393056 -0.005010
-0.158104 0.233264 -0.077731
-0.336218 0.407649 -0.055996
-0.149400 0.230687 -0.073738
-0.178271 0.230583 0.000113
-0.163718 0.350518 0.024891
-0.161849 0.228132 -0.023009
-0.129404 0.147418 -0.042017
-0.089055 0.180347 -0.038640
-0.165702 0.267815 0.006068
0.181780 0.348645 -0.022173
-0.183047 0.228362 0.015088
-0.160259 0.215205 -0.015456
0.161385 0.297277 -0.035281
-0.260677 0.265514 -0.046660
-0.143394 0.359868 0.014250
-0.011403 0.265399 0.016243
-0.138309 0.141731 -0.072692
-0.159165 0.321374 -0.003644
-0.118734 0.365096 0.003743
-0.161506 0.289671 -0.015543
-0.171501 0.275454 0.002997
-0.149235 0.154629 -0.067794
-0.012965 0.273984 0.005592
-0.094290 0.404663 -0.000957
-0.153583 0.343367 0.001066
-0.361960 0.436871 -0.052390
-0.157055 0.235863 -0.044219
-0.154367 0.228365 -0.025875
-0.134304 0.161229 -0.034856
-0.328489 0.385410 -0.075828
-0.154614 0.287743 0.020637
-0.235496 0.229299 -0.081003
-0.188856 0.317705 0.008772
-0.289956 0.296571 -0.044506
-0.117386 0.228321 -0.015353
-0.102580 0.134836 -0.030687
0.166976 0.320043 -0.030502
-0.114417 0.227353 -0.022746
-0.193148 0.237672 0.009867
-0.166449 0.174619 -0.087492
-0.098111 0.183720 -0.022739
-0.147070 0.154627 -0.085183
-0.150053 0.158811 -0.056777
-0.215704 0.273779 -0.072173
-0.258698 0.276289 -0.045581
-0.165346 0.322200 -0.004302
-0.118520 0.144186 -0.035547
0.207810 0.321350 -0.015589
-0.260471 0.247299 -0.058879
-0.224352 0.223921 -0.056277
-0.214137 0.250958 -0.042114
-0.207921 0.208164 -0.072104
-0.316581 0.363531 -0.062687
-0.111205 0.205545 -0.066133
-0.180005 0.371706 0.027238
-0.359585 0.419086 -0.036783
-0.157170 0.349197 0.019699
-0.196528 0.331082 0.018691
-0.189428 0.229396 -0.010541
-0.163396 0.171350 -0.086605
-0.123752 0.124257 -0.061144
-0.099400 0.200741 -0.032595
-0.194485 0.234433 0.002988
-0.185823 0.208309 -0.028776
-0.206546 0.371823 0.021175
0.193246 0.369142 -0.029627
-0.102722 0.205794 -0.028660
-0.126312 0.176995 -0.022969
-0.133123 0.354276 0.000826
-0.192164 0.318362 0.024517
0.219475 0.385887 -0.021831
-0.226066 0.232214 -0.049159
-0.336892 0.376384 -0.042089
-0.341440 0.414885 -0.049669
-0.162121 0.234300 -0.030948
-0.119089 0.189219 -0.016534
-0.029564 0.302972 -0.054671
-0.106024 0.201081 -0.062934
-0.199214 0.336302 0.020579
-0.005717 0.276362 -0.005564
-0.176665 0.241089 -0.039203
-0.110627 0.216908 -0.043722
0.132546 0.410374 -0.024582
-0.271254 0.310111 -0.058387
-0.150077 0.313101 0.002911
-0.206141 0.401233 0.030522
-0.195683 0.235587 -0.036004
0.035614 0.212089 0.032134
0.223615 0.352102 -0.022027
-0.000990 0.247366 0.009667
-0.138659 0.143161 -0.064992
0.201488 0.377569 -0.027204
-0.168146 0.268817 -0.001099
-0.334556 0.378648 -0.043887
-0.183577 0.348911 0.010388
0.177342 0.328606 -0.019317
-0.195833 0.203850 -0.087198
-0.118836 0.364345 0.004787
-0.153945 0.235809 -0.042168
-0.129938 0.249773 -0.003716
-0.151212 0.285304 0.017378
-0.357569 0.434031 -0.046367
0.273917 0.430720 -0.014011
-0.029064 0.282552 -0.057800
-0.095259 0.406117 0.011750
-0.214141 0.267541 -0.053077
-0.103832 0.171651 -0.021141
-0.246640 0.234014 -0.071120
-0.007809 0.276364 -0.019410
0.241208 0.402338 -0.020657
-0.019123 0.261811 -0.003418
-0.123662 0.170112 -0.024968
-0.182280 0.207823 -0.013041
-0.124191 0.124704 -0.061620
-0.086592 0.174930 -0.061152
0.238746 0.390305 -0.019794
-0.337147 0.401752 -0.046720
-0.252661 0.312890 -0.074077
-0.126130 0.163840 -0.029120
-0.146123 0.151287 -0.071515
-0.036174 0.282137 -0.060282
0.013764 0.224784 0.031639
-0.116270 0.205372 -0.080683
-0.199120 0.261347 -0.071573
-0.021963 0.293679 -0.040526
-0.095581 0.184980 -0.067320
0.231174 0.392622 -0.021181
-0.105496 0.200230 -0.063227
-0.177322 0.353394 0.013433
-0.179607 0.340773 0.005836
-0.282569 0.308882 -0.049123
-0.110948 0.190981 -0.016071
-0.184572 0.230655 -0.020867
-0.032678 0.299675 -0.042294
-0.103026 0.395378 -0.005795
-0.176103 0.231999 -0.019366
-0.172515 0.187627 -0.042089
-0.168107 0.203569 -0.017008
-0.150213 0.229218 -0.080093
-0.157307 0.233870 -0.074306
-0.165448 0.351477 0.025243
-0.205343 0.266693 -0.064447
0.180118 0.329268 -0.016917
-0.117282 0.216144 -0.011593
-0.107663 0.184497 -0.017783
-0.192608 0.230400 -0.033755
0.021375 0.223811 0.031751
-0.157149 0.236100 -0.025925
-0.032180 0.293774 -0.031961
-0.096513 0.192887 -0.053815
-0.173067 0.186166 -0.045168
-0.201316 0.234713 0.007612
-0.185399 0.379449 0.028366
-0.143648 0.152993 -0.054827
-0.148189 0.154612 -0.062690
-0.185825 0.230916 -0.013703
-0.256216 0.313233 -0.074801
-0.125494 0.242615 -0.006592
0.224810 0.352289 -0.023330
-0.225396 0.284158 -0.076777
-0.114335 0.134043 -0.037886
-0.108081 0.153585 -0.026708
-0.192889 0.196160 -0.064448
-0.090607 0.173468 -0.029653
-0.143320 0.353035 0.000197
0.204681 0.378700 -0.025072
-0.193418 0.386435 0.027573
0.207121 0.370379 -0.019890
-0.008762 0.248159 0.017957
-0.279795 0.281508 -0.045398
-0.149782 0.283692 0.016533
-0.031762 0.292268 -0.029669
-0.314809 0.359405 -0.061315
-0.136073 0.138875 -0.072368
-0.030875 0.278718 -0.054025
-0.136687 0.271790 -0.011711
-0.101735 0.169346 -0.022000
0.199856 0.366321 -0.020831
-0.009892 0.256704 -0.008260
-0.122710 0.152526 -0.033819
-0.172627 0.328276 -0.000927
-0.362168 0.437435 -0.050685
-0.124798 0.128290 -0.056623
-0.108837 0.160241 -0.024432
-0.143235 0.359971 0.014804
-0.322793 0.353343 -0.046457
-0.167477 0.238316 -0.039226
0.200290 0.324744 -0.011436
-0.146191 0.282160 -0.016363
-0.271813 0.312605 -0.061198
-0.329513 0.385386 -0.052074
-0.114592 0.225207 -0.037515
-0.024579 0.285231 -0.016210
-0.178666 0.240563 -0.037270
-0.170584 0.329848 -0.000841
-0.099181 0.200153 -0.032119
-0.320301 0.361812 -0.051145
-0.136751 0.265627 -0.021707
-0.013535 0.278097 -0.000614
-0.289951 0.321878 -0.057142
-0.106424 0.375860 0.007381
0.262028 0.413651 -0.015808
-0.015709 0.257509 0.003191
-0.078674 0.152825 -0.037900
-0.169781 0.175413 -0.073466
-0.201573 0.252170 -0.043556
-0.200733 0.205236 -0.081980
-0.141863 0.228667 -0.068403
-0.146186 0.296003 0.003219
-0.114483 0.193947 -0.014875
-0.176680 0.246260 -0.070881
-0.000146 0.259512 0.036141
-0.137395 0.242741 0.002174
-0.122065 0.213265 -0.075081
-0.362439 0.431615 -0.067597
-0.027364 0.292954 -0.029339
-0.148026 0.230679 -0.010767
-0.348493 0.417270 -0.041581
-0.177529 0.287455 0.003870
-0.180311 0.292309 0.011374
0.166270 0.327779 -0.032455
-0.125739 0.127981 -0.080847
-0.130431 0.374897 0.006855
-0.198155 0.340402 0.016507
-0.085614 0.174951 -0.051303
-0.151671 0.161180 -0.054890
-0.173768 0.282960 0.015110
-0.111319 0.372077 0.002375
-0.124024 0.204735 -0.011579
-0.278824 0.310835 -0.052694
-0.121966 0.219479 -0.059613
-0.340018 0.408938 -0.046868
-0.206608 0.265789 -0.074581
-0.159719 0.270701 0.014628
-0.188336 0.337447 0.008255
-0.028044 0.290079 -0.024750
-0.324410 0.370215 -0.050129
-0.089023 0.166853 -0.029793
-0.334955 0.402283 -0.053817
-0.008872 0.277458 -0.021472
-0.169270 0.355252 0.032707
-0.208836 0.371212 0.021506
-0.195910 0.394178 0.030347
-0.268871 0.271903 -0.046500
-0.095150 0.397278 -0.001429
-0.215728 0.272960 -0.062273
-0.172525 0.277737 -0.002562
-0.149468 0.190387 -0.025297
-0.154687 0.238805 -0.029564
-0.152685 0.320959 -0.000336
0.209774 0.361804 -0.016492
-0.015972 0.272619 -0.033915
-0.144061 0.270409 -0.023338
-0.139772 0.150026 -0.051888
-0.008096 0.245073 0.031892
-0.125640 0.241678 -0.006274
0.039038 0.214309 0.032707
-0.142389 0.350541 -0.000276
-0.175043 0.185615 -0.050023
-0.217067 0.274408 -0.064409
-0.334674 0.373435 -0.043012
-0.114441 0.187915 -0.016922
-0.140976 0.360440 0.016553
0.013463 0.223126 0.032223
-0.301774 0.330941 -0.054814
-0.174428 0.189837 -0.041209
-0.151174 0.342215 0.026439
0.006521 0.253496 0.009395
-0.177712 0.367736 0.026568
-0.199732 0.260974 -0.073762
-0.160085 0.165847 -0.074970
0.208480 0.381532 -0.024493
0.173366 0.330863 -0.022630
-0.232383 0.226742 -0.061336
-0.226055 0.220871 -0.070436
-0.136108 0.261281 0.002297
-0.255971 0.277103 -0.045729
-0.135999 0.268728 -0.017153
-0.112770 0.168880 -0.022248
0.217736 0.387046 -0.022890
-0.111261 0.141552 -0.032658
-0.171012 0.205059 -0.013533
-0.178998 0.202721 -0.024293
-0.118675 0.222059 -0.050709
-0.117370 0.219012 -0.053743
-0.184898 0.210650 -0.017123
-0.240857 0.301099 -0.069731
-0.307001 0.339962 -0.057490
-0.214988 0.260266 -0.046033
-0.177847 0.371127 0.033034
-0.160289 0.166327 -0.066733
-0.270023 0.313215 -0.078615
-0.107153 0.215357 -0.031117
-0.111591 0.211588 -0.056118
-0.143038 0.207669 -0.017525
-0.168017 0.268518 -0.000573
0.003221 0.241978 0.017451
-0.216043 0.264785 -0.048917
-0.181698 0.201489 -0.032175
-0.162489 0.348682 0.010903
-0.237958 0.270555 -0.046496
-0.110542 0.139689 -0.032985
-0.192525 0.223421 -0.032893
-0.197899 0.378984 0.022307
-0.152792 0.235389 -0.047451
-0.143479 0.280323 0.009320
-0.014662 0.262208 -0.018778
0.007825 0.259963 0.014172
-0.133026 0.239696 0.000123
-0.206131 0.367868 0.020276
-0.127963 0.372344 0.018111
0.174970 0.359257 -0.032340
-0.006657 0.251774 0.036588
-0.197238 0.394681 0.030037
-0.152285 0.291438 0.019063
-0.125657 0.222022 -0.005974
-0.213481 0.375738 0.023955
-0.138341 0.341072 0.013314
-0.079710 0.164557 -0.054499
-0.143305 0.148691 -0.078522
0.117278 0.416945 -0.027298
-0.327417 0.367681 -0.046509
-0.241050 0.301407 -0.069865
-0.037609 0.280954 -0.031186
-0.282268 0.313554 -0.052820
-0.023203 0.290285 -0.024654
-0.009766 0.267504 0.015518
-0.185997 0.359072 0.014769
-0.203751 0.234706 0.010395
0.222709 0.372232 -0.018866
-0.137687 0.345070 0.004472
-0.190178 0.313075 0.017847
-0.249846 0.294512 -0.055998
0.202383 0.377191 -0.025815
-0.257364 0.314917 -0.077368
-0.173473 0.235453 -0.030017
-0.207239 0.210810 -0.081779
-0.210966 0.268038 -0.078098
-0.122180 0.224867 -0.051032
0.017005 0.231537 0.029339
-0.161169 0.201121 -0.020547
-0.111187 0.197741 -0.015424
0.128988 0.408977 -0.021580
-0.172941 0.188208 -0.041752
-0.185375 0.253404 -0.060001
-0.175112 0.241563 -0.040827
-0.157868 0.350318 0.014713
-0.183231 0.380587 0.033237
-0.117739 0.365568 0.004134
-0.122075 0.229298 -0.044365
-0.194994 0.231824 -0.000788
-0.205882 0.347316 0.026912
0.216379 0.340196 -0.018577
-0.336988 0.398131 -0.045466
-0.126994 0.217312 -0.074874
-0.199716 0.350530 0.016746
-0.328065 0.383304 -0.077000
-0.196821 0.203672 -0.052390
-0.041770 0.287448 -0.040830
-0.154935 0.292245 -0.014197
-0.093553 0.141756 -0.027808
-0.116479 0.187235 -0.016993
-0.290374 0.323902 -0.075190
0.240912 0.384506 -0.023138
-0.177373 0.207653 -0.007737
-0.251527 0.311279 -0.072631
-0.204110 0.412565 0.036175
0.228124 0.368479 -0.021434
-0.092522 0.185120 -0.031432
-0.155576 0.227233 -0.024414
-0.034242 0.274828 -0.042146
-0.011617 0.255620 -0.005161
-0.092983 0.180923 -0.068641
-0.146264 0.237098 -0.040038
-0.102684 0.196047 -0.064227
-0.309965 0.336653 -0.051087
-0.110903 0.392621 -0.004254
-0.351456 0.417554 -0.074109
0.184834 0.352375 -0.022682
-0.149029 0.305799 0.014801
-0.148966 0.241147 -0.001703
-0.091670 0.186401 -0.036601
0.165983 0.325548 -0.033671
-0.232791 0.229435 -0.057099
-0.186765 0.306228 0.011857
-0.167776 0.242133 -0.052059
0.021960 0.234397 0.031202
-0.202247 0.339176 0.028075
-0.313660 0.351981 -0.054642
-0.026983 0.267531 -0.026168
-0.181581 0.231736 -0.015697
-0.135813 0.269020 -0.002073
-0.213190 0.417348 0.035091
-0.104173 0.196843 -0.020647
-0.199950 0.222188 0.004690
-0.144588 0.235528 -0.043750
-0.103937 0.204399 -0.024750
-0.254761 0.311589 -0.072210
-0.212636 0.422887 0.037978
-0.144180 0.277888 0.010412
-0.135796 0.269079 -0.016006
-0.172792 0.200073 -0.022357
-0.274155 0.303189 -0.049491
-0.098674 0.198936 -0.031405
-0.338624 0.377162 -0.041529
0.169636 0.295615 -0.013547
-0.331241 0.384501 -0.048671
0.193635 0.324033 -0.010912
-0.227049 0.373368 0.031320
0.211704 0.375866 -0.020425
-0.186449 0.208396 -0.030915
-0.320807 0.372591 -0.065093
0.230555 0.396906 -0.022841
-0.192473 0.237031 0.008979
0.205643 0.365457 -0.018116
-0.020907 0.287219 -0.049762
-0.137510 0.266102 0.002345
-0.347674 0.418860 -0.071270
-0.282806 0.316569 -0.056750
-0.008205 0.267782 -0.020622
0.254321 0.402186 -0.019930
0.117294 0.416724 -0.028193
-0.210458 0.253909 -0.043336
-0.196680 0.326795 0.024768
-0.006466 0.244023 0.023160
0.128871 0.404729 -0.027079
-0.351780 0.421582 -0.073740
-0.207830 0.361556 0.021803
-0.155513 0.345621 0.003743
-0.340573 0.381411 -0.040545
-0.231264 0.226108 -0.060955
-0.137559 0.229894 -0.057235
-0.010708 0.260008 0.020631
-0.318802 0.369014 -0.067237
-0.239239 0.229620 -0.074896
-0.153787 0.216672 -0.018136
-0.182485 0.190103 -0.054525
-0.153436 0.233157 -0.070971
-0.146978 0.152221 -0.073317
-0.210749 0.214677 -0.054698
-0.150109 0.214569 -0.017977
-0.187618 0.228530 -0.026245
-0.172560 0.215541 -0.002830
-0.162094 0.276432 0.017693
0.171506 0.339204 -0.025781
-0.149660 0.292527 0.017032
0.131175 0.406982 -0.023661
0.204357 0.338607 -0.012901
-0.254831 0.251726 -0.050761
-0.006957 0.273120 -0.018873
-0.132517 0.142374 -0.051217
-0.106166 0.197288 -0.018724
-0.255794 0.289345 -0.049414
-0.124854 0.356920 0.010949
-0.245906 0.297212 -0.061016
-0.010224 0.253866 0.022882
-0.229376 0.380141 0.029199
-0.167322 0.241888 -0.051806
-0.129295 0.153711 -0.037007
-0.107180 0.214337 -0.037981
-0.144635 0.193317 -0.022609
-0.189790 0.210174 -0.034806
-0.327238 0.386983 -0.065563
-0.004872 0.253380 -0.001220
-0.357565 0.427106 -0.038769
-0.162858 0.316891 -0.005736
-0.164666 0.263863 -0.011677
-0.096089 0.178876 -0.023929
-0.318853 0.368321 -0.062973
-0.317217 0.352404 -0.050251
-0.010314 0.271751 0.010115
0.178329 0.356899 -0.029484
-0.301353 0.325159 -0.050728
-0.150113 0.316106 0.003036
-0.049898 0.300842 -0.057013
-0.041392 0.297507 -0.043786
-0.192604 0.388620 0.029479
-0.099117 0.408533 0.012510
-0.156418 0.247497 -0.018569
-0.116520 0.383990 -0.003425
-0.187616 0.385107 0.031865
-0.127624 0.217968 -0.074448
-0.028425 0.292178 -0.027920
-0.244259 0.296932 -0.061958
-0.085419 0.162802 -0.034231
-0.241030 0.285434 -0.053590
-0.133068 0.365654 0.018495
-0.092845 0.405263 0.006978
-0.168986 0.188588 -0.035974
-0.196189 0.253432 -0.081713
0.036084 0.224590 0.037077
-0.219621 0.232207 -0.045627
0.159892 0.292179 -0.027831
-0.182800 0.306328 0.002160
-0.224374 0.417806 0.037276
-0.127452 0.148549 -0.039575
-0.128527 0.374095 0.016533
-0.030910 0.273478 -0.020111
-0.225446 0.221922 -0.077915
-0.098572 0.389858 -0.001755
-0.159249 0.279788 0.019609
-0.273079 0.313177 -0.079870
0.213257 0.367115 -0.017569
-0.096909 0.401905 -0.003130
-0.101812 0.204237 -0.029047
-0.151439 0.208196 -0.018973
-0.094759 0.164638 -0.025185
-0.217660 0.226652 -0.047746
-0.117585 0.233862 -0.022223
-0.309257 0.347207 -0.074307
0.208080 0.327703 -0.014704
-0.150251 0.317344 0.002346
-0.164409 0.309377 -0.008149
-0.198659 0.239849 -0.038136
-0.089768 0.181746 -0.036988
-0.005556 0.275329 -0.001410
0.243311 0.402889 -0.019604
-0.152499 0.236632 -0.015647
-0.113376 0.369156 0.004828
-0.099514 0.193192 -0.061702
-0.174985 0.238960 -0.035844
-0.263852 0.262907 -0.048271
-0.126039 0.247990 -0.010666
-0.178806 0.345395 0.007610
-0.136943 0.262601 0.003474
-0.008790 0.262072 0.021701
0.195806 0.327773 -0.011458
-0.239984 0.294949 -0.063232
-0.024465 0.282475 -0.012611
0.116956 0.417826 -0.028506
0.020778 0.242759 0.031272
-0.035789 0.290540 -0.031600
-0.280904 0.317988 -0.061780
-0.127284 0.376955 0.003675
0.001280 0.250011 0.007627
-0.150358 0.268916 0.013819
-0.099726 0.188191 -0.072131
-0.035740 0.285879 -0.028201
-0.160795 0.178468 -0.041350
-0.083491 0.167504 -0.041594
-0.141659 0.283764 0.002872
-0.124929 0.356710 0.009207
-0.223586 0.245269 -0.043121
-0.161846 0.349101 0.014450
-0.180053 0.376115 0.034609
-0.034154 0.300883 -0.043770
-0.346781 0.418634 -0.071653
-0.267209 0.297347 -0.048938
-0.093490 0.396342 0.006690
-0.079085 0.161945 -0.082189
0.197243 0.336299 -0.012336
0.176958 0.344413 -0.023409
-0.197995 0.200940 -0.077188
0.202477 0.361042 -0.017670
-0.041243 0.301608 -0.047354
-0.131380 0.253886 -0.002274
-0.121719 0.157291 -0.030168
-0.094757 0.174916 -0.024693
-0.179611 0.365471 0.021725
-0.112750 0.374453 0.017953
-0.251786 0.241205 -0.084328
-0.167865 0.273902 0.011081
-0.105064 0.392662 0.019258
-0.129670 0.131196 -0.077047
-0.154758 0.162250 -0.059975
-0.093601 0.172501 -0.025601
0.201761 0.359806 -0.017634
-0.179595 0.212695 0.003311
-0.198082 0.388871 0.026448
0.128407 0.422507 -0.025237
-0.238410 0.285428 -0.055223
-0.120992 0.368302 0.019522
-0.139239 0.153229 -0.046958
0.119380 0.418686 -0.017070
-0.220083 0.406878 0.034270
-0.287137 0.318452 -0.055018
-0.146056 0.270829 0.011797
0.126004 0.410842 -0.019259
-0.312260 0.352066 -0.057449
-0.107904 0.157355 -0.025231
-0.171325 0.176761 -0.068072
-0.046453 0.291153 -0.049504
-0.153346 0.162627 -0.088880
-0.006854 0.274969 -0.017749
0.261350 0.424011 -0.015959
-0.094739 0.190852 -0.051990
-0.198415 0.223588 0.001203
-0.247911 0.309333 -0.072236
-0.173732 0.287942 0.019454
-0.146419 0.154973 -0.087447
-0.162563 0.171038 -0.056526
-0.209930 0.268928 -0.071830
0.222494 0.356863 -0.020058
-0.150376 0.338873 0.026783
-0.183466 0.311970 0.002256
-0.033901 0.304379 -0.050580
-0.124943 0.381016 0.005857
-0.198361 0.259852 -0.054986
-0.106064 0.202364 -0.060583
-0.173757 0.241228 -0.040796
-0.095436 0.172843 -0.024073
-0.158109 0.226828 -0.022678
-0.135782 0.261808 0.001838
0.162148 0.294418 -0.022853
-0.125142 0.133107 -0.050621
-0.250416 0.389423 0.026796
-0.197615 0.400927 0.033102
-0.199887 0.220606 0.005588
-0.159351 0.166036 -0.063803
-0.172956 0.179734 -0.059386
-0.006886 0.242659 0.027570
-0.044022 0.295394 -0.046247
-0.137911 0.183342 -0.024756
-0.200377 0.219951 0.008669
-0.263622 0.252633 -0.055330
0.180901 0.345783 -0.021507
-0.217685 0.388767 0.029065
-0.150289 0.353632 0.006185
-0.282752 0.317990 -0.058992
-0.176885 0.245573 -0.047735
-0.196845 0.238966 0.014823
-0.121071 0.220131 -0.008622
-0.132708 0.372372 0.009812
0.003803 0.262731 0.005632
-0.132729 0.222012 -0.074147
-0.258594 0.308981 -0.067096
-0.146983 0.253916 -0.031041
-0.163410 0.345700 0.032700
0.136374 0.406740 -0.028265
-0.274872 0.312322 -0.058638
-0.050594 0.295557 -0.057291
-0.173151 0.202290 -0.018262
-0.199241 0.217774 0.011631
-0.349789 0.414842 -0.038893
-0.194543 0.328244 0.015808
-0.129639 0.370394 0.000389
0.216863 0.321895 -0.029643
-0.166104 0.240575 -0.048026
-0.150538 0.233801 -0.012829
-0.120825 0.238963 -0.027672
-0.095144 0.393997 0.008623
-0.242553 0.266440 -0.045382
-0.299857 0.331077 -0.057809
-0.174951 0.192613 -0.037519
-0.184336 0.232583 -0.025105
-0.223256 0.224151 -0.084478
-0.146607 0.277767 0.013316
-0.029696 0.285606 -0.020050
-0.165180 0.241278 -0.059720
-0.337602 0.402330 -0.046279
