ply
format ascii 1.0
element vertex 1024
property float x
property float y
property float z
end_header
-0.004663 0.171282 -0.121329
-0.128259 0.206330 -0.128526
-0.148620 0.175748 -0.114176
-0.062725 0.158728 -0.096508
-0.055160 0.183336 -0.191482
0.046510 0.179843 -0.229285
-0.173401 0.300559 -0.007880
-0.015720 0.147593 -0.163104
-0.132426 0.186265 -0.131281
-0.056394 0.125441 -0.117350
-0.131240 0.218922 -0.006945
0.004840 0.160877 -0.150426
-0.046245 0.121904 -0.109200
-0.010670 0.160782 -0.208275
-0.202237 0.395889 0.071713
-0.186052 0.328398 0.043126
-0.171746 0.352815 0.038825
-0.143736 0.290278 0.003504
-0.145707 0.338529 0.000628
-0.126717 0.189080 -0.125590
0.041093 0.279232 -0.206882
-0.188766 0.234645 0.018405
-0.175601 0.192375 -0.099205
0.053795 0.199543 -0.249391
0.068941 0.201318 -0.244960
-0.143917 0.290197 -0.000777
-0.218555 0.244355 0.073986
-0.154702 0.204896 -0.019480
0.012195 0.158938 -0.166281
0.135823 0.419703 -0.074259
-0.111400 0.222719 -0.028858
-0.083572 0.141954 -0.109899
-0.126835 0.209907 -0.105715
-0.208296 0.371984 0.062113
-0.179207 0.291483 0.016711
-0.237209 0.425722 0.076840
-0.248759 0.260374 0.089238
0.044389 0.257362 -0.204767
-0.226702 0.256409 0.046797
-0.058385 0.172857 -0.149273
-0.003906 0.182337 -0.202793
-0.150768 0.342780 0.026311
-0.129699 0.258205 -0.008590
-0.210127 0.242879 0.060758
0.131315 0.406137 -0.076779
-0.004510 0.158413 -0.190762
-0.165117 0.269477 0.009870
-0.032043 0.195926 -0.198542
0.121297 0.405673 -0.069003
-0.193413 0.410972 0.053945
0.064327 0.190856 -0.223882
-0.078110 0.157367 -0.099268
-0.100672 0.383397 0.008171
-0.185760 0.343003 0.008356
-0.191504 0.225784 -0.011167
-0.128058 0.248716 -0.027922
-0.155267 0.229214 -0.027284
-0.176320 0.246470 -0.051330
-0.032467 0.276937 -0.022516
-0.169777 0.210562 -0.008910
-0.173830 0.192034 -0.036898
-0.050026 0.153495 -0.090371
-0.187489 0.355833 0.054741
0.021431 0.227946 -0.187681
-0.011404 0.192386 -0.162852
0.015689 0.186856 -0.120603
0.051784 0.217581 -0.240687
-0.186497 0.316618 0.035205
-0.177007 0.341084 0.005208
0.124793 0.400697 -0.067448
-0.211717 0.212083 -0.061170
-0.096651 0.403068 0.014788
-0.188012 0.212178 -0.008075
-0.031395 0.192978 -0.201383
-0.189078 0.373886 0.059442
-0.163281 0.327727 -0.002728
0.141342 0.414718 -0.068085
-0.138570 0.148712 -0.051832
-0.046285 0.141847 -0.143423
-0.068267 0.153355 -0.122074
0.012764 0.204803 -0.106547
-0.051213 0.306169 -0.064799
0.004075 0.178691 -0.136547
-0.055918 0.182862 -0.184725
-0.115784 0.161366 -0.106372
-0.040851 0.190496 -0.165420
-0.169549 0.274548 0.009196
-0.003702 0.195534 -0.188000
-0.213109 0.240639 0.067052
-0.056550 0.181199 -0.177076
-0.149026 0.309556 0.013309
0.031041 0.164879 -0.200143
-0.038154 0.286253 -0.031808
-0.160967 0.168223 -0.061157
0.132889 0.431071 -0.065523
0.021997 0.207265 -0.213595
-0.105420 0.190115 -0.082812
-0.110415 0.140824 -0.102690
-0.166009 0.267778 0.005341
-0.106338 0.382317 0.017923
0.075417 0.220746 -0.251144
-0.128906 0.184834 -0.124827
-0.003032 0.156538 -0.138638
-0.178866 0.371256 0.029446
0.024759 0.176888 -0.172038
-0.177251 0.182382 -0.078335
-0.050063 0.174111 -0.188843
-0.199799 0.423669 0.058458
-0.088126 0.175043 -0.067137
0.001060 0.186698 -0.152433
0.033547 0.202141 -0.189667
-0.188490 0.209250 -0.033666
-0.098615 0.403774 0.014934
-0.134042 0.155472 -0.039525
-0.238086 0.257513 0.060777
0.009878 0.201818 -0.183231
0.044373 0.177569 -0.192357
-0.048267 0.173221 -0.120995
-0.052279 0.306338 -0.069024
-0.025585 0.160500 -0.189940
-0.180583 0.377281 0.043510
-0.135161 0.141015 -0.058614
-0.170972 0.181105 -0.091668
-0.186333 0.210845 -0.024895
-0.188366 0.217317 -0.019351
-0.148720 0.355734 0.015297
-0.154214 0.308203 -0.005555
-0.140269 0.258188 0.006697
-0.230152 0.431658 0.081738
0.053297 0.197010 -0.202979
-0.226330 0.232185 0.070593
-0.040801 0.164307 -0.181160
-0.114643 0.195486 -0.014548
-0.031676 0.187365 -0.143289
-0.041887 0.177911 -0.125515
-0.174978 0.207330 -0.008718
-0.231591 0.414571 0.074727
-0.162436 0.262722 0.004502
0.021242 0.213764 -0.208446
-0.186446 0.341468 0.050095
-0.211713 0.221505 0.036494
-0.134153 0.180242 -0.123889
-0.017888 0.191367 -0.138748
-0.120770 0.220220 -0.056945
-0.164545 0.311789 -0.007366
-0.096766 0.392029 0.011036
-0.180232 0.293906 0.003960
-0.114153 0.212851 -0.058589
-0.085811 0.169661 -0.073968
-0.064454 0.151478 -0.130675
-0.141185 0.283947 -0.001948
0.001853 0.155956 -0.149538
-0.016140 0.282103 -0.038176
-0.090422 0.178485 -0.066061
-0.172220 0.339984 0.042776
-0.125243 0.235946 -0.039473
-0.191338 0.352486 0.054996
-0.026876 0.189530 -0.149425
-0.159086 0.209085 -0.016978
-0.144170 0.174674 -0.115569
-0.105893 0.392312 0.019464
-0.200220 0.223515 0.040654
-0.020032 0.283439 -0.046946
-0.037747 0.298519 -0.041789
-0.168842 0.188510 -0.104284
-0.178785 0.349326 0.010204
-0.182594 0.231616 -0.019127
0.056500 0.217920 -0.234240
0.112937 0.415973 -0.062148
-0.185894 0.307285 0.006909
-0.165158 0.313052 0.033274
-0.189527 0.235261 0.003562
-0.010080 0.183685 -0.113391
-0.017912 0.191263 -0.145911
0.031153 0.211897 -0.207896
-0.163549 0.214453 -0.012098
-0.208186 0.403480 0.076092
-0.105441 0.202296 -0.059135
-0.162782 0.235663 -0.077942
-0.177725 0.182519 -0.072432
-0.174568 0.231853 -0.017325
-0.030030 0.302513 -0.049666
-0.095306 0.397926 0.013184
-0.183799 0.205203 -0.028777
-0.128073 0.203686 -0.130932
-0.076427 0.160750 -0.078001
-0.205061 0.222029 -0.042324
-0.127893 0.193481 -0.130889
-0.225020 0.416495 0.079045
-0.185898 0.309292 0.006244
0.122630 0.444125 -0.059277
0.035126 0.238849 -0.190852
-0.022034 0.288455 -0.052029
-0.153118 0.306609 -0.004989
-0.114995 0.226613 -0.036044
-0.189294 0.322636 0.037973
-0.192713 0.392632 0.064113
-0.148233 0.237697 -0.004196
-0.160284 0.229976 -0.086926
-0.228210 0.442076 0.080786
-0.183515 0.385067 0.045203
-0.202760 0.344164 0.022562
-0.104027 0.202252 -0.022818
-0.086735 0.146824 -0.106726
-0.193653 0.341946 0.012161
-0.032661 0.130672 -0.115881
-0.052837 0.177991 -0.190134
0.014147 0.182942 -0.114919
-0.137735 0.245334 -0.037305
0.065128 0.204182 -0.223909
-0.184568 0.241140 -0.037188
-0.201187 0.247334 -0.040768
-0.032516 0.137319 -0.138185
-0.074430 0.140438 -0.117008
-0.151328 0.311563 0.020090
-0.016721 0.163367 -0.218901
-0.170114 0.342126 0.041302
-0.018698 0.156671 -0.191403
-0.157157 0.350130 0.011155
-0.182226 0.305504 0.028419
-0.201970 0.223003 0.007723
-0.054715 0.142518 -0.138278
0.025831 0.202138 -0.117636
0.042041 0.210852 -0.222317
-0.182960 0.230187 0.011925
-0.210741 0.228261 -0.043320
-0.152442 0.158205 -0.066616
-0.096580 0.103519 -0.085311
-0.213546 0.386538 0.069230
-0.175090 0.282011 0.009112
-0.080905 0.164147 -0.076237
-0.095994 0.196268 -0.037592
-0.248162 0.262561 0.080239
-0.153463 0.247903 -0.026894
-0.015579 0.154117 -0.182889
-0.114061 0.221615 -0.016684
0.018654 0.206286 -0.181934
-0.189304 0.192578 -0.067710
0.051509 0.181011 -0.198717
-0.035996 0.293226 -0.074907
0.065932 0.195159 -0.233367
0.124301 0.440388 -0.075558
-0.162521 0.300186 -0.011702
-0.146243 0.228102 -0.078291
-0.086366 0.176511 -0.046324
-0.170348 0.182611 -0.047491
-0.033435 0.290802 -0.028914
-0.221351 0.223642 -0.053364
-0.210514 0.417986 0.078234
-0.188234 0.352196 0.054278
-0.065553 0.107491 -0.099821
-0.142050 0.350370 0.022938
-0.192647 0.318814 0.023645
-0.173825 0.316238 -0.004076
0.001859 0.177877 -0.117053
-0.125265 0.125107 -0.065029
-0.182910 0.186973 -0.070959
-0.182500 0.300074 0.021926
-0.137846 0.183027 -0.129585
-0.006660 0.154313 -0.133634
-0.045588 0.164368 -0.103893
-0.108587 0.207854 -0.056352
-0.225261 0.269713 0.068568
-0.182032 0.231844 -0.020984
-0.169715 0.345882 0.008391
-0.140882 0.337116 0.007015
0.032287 0.243128 -0.211652
-0.101076 0.110409 -0.089663
0.060697 0.220976 -0.256349
-0.208003 0.237608 0.058480
0.027658 0.251360 -0.214477
-0.157541 0.313635 -0.005620
0.052551 0.178095 -0.224594
0.026318 0.222460 -0.207810
-0.147069 0.231800 -0.065434
0.029197 0.242628 -0.188227
-0.149774 0.289093 -0.014076
-0.191052 0.214858 0.016524
-0.124806 0.148557 -0.101859
-0.058200 0.170721 -0.137909
-0.100001 0.410173 0.000600
-0.212310 0.432131 0.075918
-0.123711 0.153872 -0.033468
-0.132987 0.237621 -0.000237
-0.224066 0.367514 0.040220
-0.135096 0.185451 -0.022646
-0.118448 0.117617 -0.071924
-0.170180 0.278183 -0.009189
-0.131184 0.132600 -0.072664
-0.162576 0.285694 -0.016426
-0.151079 0.159754 -0.087408
-0.174085 0.237787 -0.034082
-0.109507 0.204921 -0.063877
-0.157617 0.307401 -0.008104
0.040648 0.174493 -0.221711
0.072346 0.211714 -0.243698
0.056203 0.218744 -0.237343
-0.057448 0.156207 -0.090189
-0.143805 0.348880 0.023294
-0.148908 0.197967 -0.021775
-0.193324 0.254750 -0.050836
-0.098597 0.156403 -0.102561
-0.090310 0.132361 -0.106629
-0.105954 0.189726 -0.084789
-0.156664 0.232382 -0.078734
-0.045120 0.295835 -0.047929
-0.212538 0.224631 -0.045995
-0.191981 0.327853 0.039772
-0.001909 0.155399 -0.182868
-0.034761 0.189904 -0.163837
-0.012587 0.177909 -0.224108
0.119239 0.418585 -0.078764
-0.143296 0.215225 -0.015204
0.045294 0.265414 -0.206922
-0.144040 0.254016 0.007171
-0.142298 0.267522 -0.024141
-0.104117 0.400782 0.017078
-0.173743 0.332103 0.042212
-0.075499 0.160167 -0.064001
-0.204131 0.231584 0.052212
-0.032046 0.176827 -0.196001
0.043171 0.206749 -0.239964
-0.202468 0.421627 0.069869
-0.215907 0.249174 0.036378
-0.002236 0.194720 -0.171270
0.006040 0.200254 -0.184141
-0.052394 0.175167 -0.185784
-0.042626 0.282550 -0.050013
0.035048 0.229996 -0.202086
-0.231472 0.432609 0.081702
-0.024642 0.270564 -0.036283
-0.222795 0.265506 0.058405
-0.038485 0.181947 -0.132703
-0.204881 0.409376 0.074910
-0.047645 0.128382 -0.122976
-0.052270 0.144401 -0.141858
-0.057157 0.162187 -0.156990
0.048878 0.174897 -0.200970
-0.152924 0.223364 -0.099387
-0.153029 0.326771 0.026900
-0.191094 0.377108 0.061316
-0.173666 0.316350 -0.004104
-0.209124 0.231390 0.058498
-0.209656 0.238282 0.060425
-0.132942 0.145121 -0.094379
-0.191945 0.328985 0.040756
0.035623 0.209316 -0.217209
-0.134455 0.265061 -0.002068
-0.081255 0.122908 -0.107511
-0.105952 0.376583 0.005264
-0.034704 0.141890 -0.147501
0.003230 0.176590 -0.123818
-0.001173 0.151537 -0.154515
-0.221324 0.248720 0.077271
-0.182852 0.251361 -0.055820
-0.103014 0.208111 -0.036131
-0.213954 0.236160 0.066859
0.030085 0.265166 -0.191974
0.054086 0.185512 -0.234811
-0.187077 0.233118 -0.005934
-0.019737 0.285559 -0.046821
-0.146519 0.349795 0.000478
-0.194868 0.197504 -0.073107
-0.167009 0.323258 -0.003901
-0.118627 0.364125 0.014494
-0.041657 0.202794 -0.191279
-0.213982 0.252789 0.061452
-0.154453 0.349332 0.020248
0.012190 0.206542 -0.201884
-0.158683 0.229093 -0.087919
-0.207329 0.413088 0.076441
-0.060233 0.157127 -0.144550
-0.182358 0.306062 0.028900
0.060016 0.198583 -0.211142
-0.223142 0.236431 0.075061
-0.125227 0.245462 -0.026594
0.107367 0.430258 -0.060129
-0.133749 0.351072 0.001632
-0.124696 0.140465 -0.043133
-0.080531 0.140406 -0.112016
-0.122710 0.122421 -0.062796
-0.068347 0.116059 -0.106310
-0.055353 0.186176 -0.172257
-0.190006 0.313956 0.025209
-0.031744 0.191041 -0.185209
-0.197280 0.215598 0.018100
-0.050813 0.146492 -0.146067
-0.152220 0.313382 0.021992
-0.035646 0.172285 -0.192575
-0.132600 0.262145 -0.018799
-0.035126 0.151927 -0.099165
-0.152864 0.185292 -0.029475
-0.003392 0.195247 -0.173122
-0.003636 0.186863 -0.110812
0.009622 0.187636 -0.208519
-0.178019 0.248866 -0.064916
-0.002589 0.174615 -0.233927
-0.172604 0.314045 -0.005112
0.027305 0.183221 -0.223550
0.038636 0.208745 -0.211222
0.073220 0.224256 -0.250548
-0.121658 0.188511 -0.115141
-0.109899 0.173943 -0.103076
0.061349 0.193783 -0.210536
-0.103427 0.103653 -0.072916
-0.086389 0.176432 -0.049048
-0.189645 0.192878 -0.067956
-0.050832 0.167289 -0.110393
-0.159478 0.317706 -0.004823
-0.136264 0.231204 -0.002851
-0.225435 0.243446 0.081272
-0.044028 0.177057 -0.125836
0.119301 0.412228 -0.050550
-0.244401 0.265458 0.084998
0.014640 0.205387 -0.109890
-0.184740 0.306752 0.026102
-0.095010 0.181691 -0.072470
-0.229460 0.248150 0.045784
-0.046033 0.187760 -0.158694
-0.180284 0.349343 0.010208
-0.051185 0.119990 -0.108201
-0.055955 0.185670 -0.186815
-0.020857 0.287194 -0.049625
-0.206644 0.349432 0.026268
-0.149765 0.224890 -0.094139
-0.185707 0.200554 -0.040304
-0.133584 0.176659 -0.025984
-0.152974 0.271233 0.015409
-0.189423 0.223916 -0.015316
-0.092404 0.183461 -0.060505
-0.057302 0.163573 -0.158020
-0.178321 0.299355 -0.003546
-0.052427 0.165214 -0.106800
-0.201131 0.256635 -0.047764
-0.209512 0.222585 0.047286
-0.037138 0.277464 -0.035734
-0.165540 0.232937 -0.026684
-0.123222 0.360829 0.002754
-0.186785 0.379291 0.056940
-0.185248 0.386684 0.036965
-0.164676 0.179047 -0.099122
-0.192417 0.217483 -0.006954
-0.011137 0.176184 -0.114931
-0.190946 0.404498 0.050627
0.115594 0.428350 -0.080009
-0.125768 0.223991 -0.056823
0.019829 0.232976 -0.203274
-0.184049 0.358127 0.053660
-0.054764 0.124734 -0.116626
-0.188276 0.388901 0.056605
-0.219881 0.384462 0.063246
-0.213446 0.358044 0.029480
-0.005353 0.172504 -0.119138
-0.113483 0.172441 -0.106000
-0.097406 0.191846 -0.026999
-0.188381 0.248620 -0.044604
-0.020806 0.155096 -0.112419
-0.061813 0.135780 -0.126529
-0.166065 0.264693 0.000109
-0.231575 0.402301 0.058682
-0.064475 0.161727 -0.112929
-0.178326 0.245535 -0.046087
-0.053480 0.169405 -0.117380
-0.199754 0.239169 0.013084
-0.087634 0.141706 -0.108272
-0.047225 0.170559 -0.114583
-0.131549 0.258247 -0.003882
0.001550 0.197749 -0.178731
-0.044307 0.292494 -0.076298
-0.032650 0.275989 -0.023833
0.018414 0.226086 -0.199492
-0.158610 0.350031 0.014695
-0.017565 0.142885 -0.144488
-0.233047 0.234380 0.071730
-0.193222 0.217044 -0.002881
-0.126238 0.355435 0.012641
-0.167750 0.242060 -0.064640
-0.055651 0.170886 -0.128112
-0.002638 0.150805 -0.167672
-0.172364 0.300365 -0.008801
-0.038705 0.174829 -0.195536
0.129977 0.436660 -0.064075
-0.117163 0.392659 0.008248
-0.024313 0.180620 -0.118798
-0.204593 0.369362 0.062045
-0.112299 0.378460 -0.003382
-0.146481 0.324898 0.014110
-0.142439 0.177233 -0.029829
-0.208967 0.241819 0.023941
0.039436 0.189779 -0.236014
-0.211824 0.227925 0.058884
-0.036564 0.285057 -0.065335
0.037362 0.168808 -0.189937
-0.178109 0.356860 0.046953
-0.022905 0.138676 -0.129349
-0.196957 0.377334 0.021618
-0.187279 0.227776 0.023145
-0.036777 0.194041 -0.178455
-0.030973 0.271706 -0.032919
0.029316 0.199117 -0.115176
-0.235839 0.436190 0.081508
-0.122556 0.140179 -0.041422
0.023344 0.162743 -0.179952
-0.131700 0.133881 -0.064748
-0.158406 0.209295 -0.017199
-0.157890 0.249523 -0.008200
-0.194404 0.227377 0.036001
0.120857 0.443952 -0.076131
-0.199788 0.218551 0.031765
-0.203946 0.218746 0.028062
-0.232821 0.242014 0.083681
-0.164494 0.188448 -0.033093
-0.149732 0.221503 -0.017714
0.063111 0.197028 -0.245911
-0.135021 0.186924 -0.135323
0.037404 0.279782 -0.200706
-0.142779 0.288063 0.002203
-0.161378 0.327622 0.033743
0.037578 0.239386 -0.194797
-0.012382 0.192595 -0.183369
-0.082953 0.167011 -0.070712
0.030322 0.211395 -0.209022
-0.185181 0.387648 0.038624
-0.144530 0.351178 0.022688
-0.144943 0.170996 -0.035039
-0.145997 0.260283 -0.028707
-0.189372 0.353732 0.055247
-0.223707 0.231441 0.069279
-0.118034 0.212543 -0.067743
0.063504 0.190315 -0.232391
-0.132067 0.159863 -0.034542
-0.151524 0.209643 -0.018946
-0.157140 0.179830 -0.036592
0.001482 0.170943 -0.134275
-0.166507 0.306710 0.031795
-0.048227 0.124534 -0.115861
-0.213237 0.355786 0.041732
-0.214763 0.253056 0.062883
-0.225062 0.369052 0.035950
-0.171933 0.228045 -0.008774
-0.138522 0.250224 0.004615
-0.158458 0.286967 0.022159
-0.032139 0.289077 -0.067641
-0.202107 0.236078 -0.038207
-0.144268 0.290468 -0.002444
0.010510 0.188799 -0.209127
-0.026051 0.180646 -0.196876
-0.105611 0.197572 -0.068764
-0.164299 0.170042 -0.075788
-0.139529 0.224125 -0.080821
-0.020505 0.292219 -0.043228
-0.148677 0.247582 -0.032141
-0.068192 0.154219 -0.121939
-0.110358 0.374470 0.015699
-0.132744 0.264762 -0.006195
-0.206827 0.223625 0.017001
0.026459 0.210089 -0.211452
-0.018172 0.157857 -0.196038
-0.115882 0.189970 -0.105255
-0.014131 0.192408 -0.164204
-0.228291 0.263542 0.053605
-0.006855 0.153893 -0.181971
-0.032758 0.305128 -0.073388
0.065450 0.206613 -0.225885
-0.210684 0.210427 -0.065741
0.108205 0.432600 -0.075589
-0.130598 0.133986 -0.081978
-0.186332 0.369574 0.056866
-0.012126 0.193291 -0.175118
0.024227 0.215659 -0.208325
-0.013105 0.191654 -0.147775
-0.200241 0.345064 0.047721
-0.182463 0.193544 -0.046798
0.035461 0.245377 -0.210570
-0.197224 0.239814 0.026886
-0.142693 0.285699 -0.008069
-0.232059 0.256989 0.052277
-0.159380 0.252232 -0.013059
-0.186543 0.363610 0.056333
-0.093278 0.188542 -0.052006
-0.239704 0.263046 0.070435
-0.053422 0.169732 -0.118299
-0.216897 0.230684 0.029731
-0.153617 0.162972 -0.055080
0.008646 0.157044 -0.180815
-0.201481 0.203301 -0.072705
-0.043054 0.145218 -0.149697
-0.002938 0.187986 -0.199443
-0.199236 0.422049 0.051034
-0.174881 0.190546 -0.098461
-0.151155 0.219255 -0.018003
-0.049249 0.291731 -0.063786
-0.200699 0.382855 0.067798
-0.001985 0.169652 -0.236801
0.025113 0.240736 -0.189080
-0.149150 0.218984 -0.017523
-0.119988 0.191959 -0.112023
-0.192497 0.224466 -0.032975
0.039171 0.204328 -0.200190
-0.218951 0.234485 -0.044214
-0.143027 0.152082 -0.055345
-0.208831 0.412737 0.077030
-0.156597 0.164972 -0.057892
-0.148700 0.275669 -0.021652
0.133900 0.419016 -0.076261
-0.235820 0.424469 0.077381
-0.221283 0.367216 0.031863
-0.211760 0.248850 0.060392
-0.009170 0.165623 -0.120478
0.044412 0.261065 -0.208054
0.012614 0.204667 -0.110023
-0.038347 0.171016 -0.112270
-0.127312 0.223336 -0.059771
-0.009690 0.179317 -0.230751
0.045476 0.195577 -0.195711
0.031273 0.223393 -0.205161
-0.225622 0.369652 0.035761
-0.088304 0.173758 -0.071260
-0.162132 0.335132 0.034535
-0.153795 0.348320 0.021533
0.016775 0.201621 -0.120530
-0.222112 0.371110 0.050980
-0.018591 0.141577 -0.134944
0.069172 0.206918 -0.231973
-0.202480 0.427740 0.053222
0.007994 0.188751 -0.163651
-0.181725 0.187625 -0.059468
-0.175318 0.244310 -0.074075
0.033172 0.238970 -0.188854
-0.152070 0.267668 -0.024907
0.106491 0.430613 -0.065575
-0.170910 0.240770 -0.076133
0.078804 0.226468 -0.263136
0.113576 0.433675 -0.080003
-0.158319 0.281447 -0.018854
-0.128538 0.208138 -0.126294
-0.129959 0.215481 -0.095216
-0.200972 0.217824 0.019803
-0.039538 0.197816 -0.183676
-0.128595 0.256632 -0.013459
-0.033673 0.273614 -0.037521
-0.193073 0.341718 0.049673
0.078276 0.218408 -0.263679
-0.106203 0.192438 -0.080545
-0.159975 0.325169 -0.002863
0.009646 0.198088 -0.125580
-0.109397 0.215235 -0.044133
0.037392 0.200255 -0.235642
-0.107285 0.189755 -0.087280
-0.185888 0.313314 0.005416
-0.186608 0.309458 0.007439
0.004007 0.172859 -0.201630
-0.137402 0.155872 -0.099964
-0.140529 0.157590 -0.043226
-0.189831 0.209104 -0.035920
-0.188098 0.207359 -0.035368
-0.232782 0.235060 0.059314
0.043672 0.206149 -0.206021
-0.177446 0.248640 -0.061995
-0.135282 0.209413 -0.012786
-0.141019 0.237613 0.000330
-0.069682 0.108804 -0.101382
-0.038377 0.146978 -0.094003
-0.218793 0.217990 -0.059395
-0.029929 0.299373 -0.041976
0.037437 0.191467 -0.186822
-0.128861 0.143146 -0.045300
-0.160822 0.254815 -0.009712
0.060649 0.192674 -0.241296
-0.146740 0.297679 0.000285
-0.043291 0.149329 -0.155307
-0.242441 0.246393 0.086784
-0.083546 0.131657 -0.109489
-0.168493 0.341656 0.004851
0.054281 0.206045 -0.212651
-0.139081 0.182388 -0.129253
-0.138968 0.275478 -0.013961
-0.186304 0.392054 0.048216
-0.137054 0.183437 -0.024360
0.043719 0.175683 -0.224117
0.033573 0.202231 -0.230145
-0.168724 0.175227 -0.062186
-0.131265 0.164289 -0.108931
-0.038583 0.180768 -0.201945
-0.227714 0.429398 0.081778
-0.092622 0.404596 0.006988
-0.138279 0.277615 -0.007655
0.042112 0.254503 -0.193816
-0.066563 0.159957 -0.108510
-0.119388 0.153581 -0.104415
0.040692 0.256803 -0.210463
-0.187820 0.369092 0.019385
-0.169201 0.340457 0.040448
-0.030167 0.141387 -0.103230
0.025861 0.198399 -0.118425
-0.223803 0.385685 0.058534
-0.145491 0.192600 -0.023142
-0.110333 0.374668 -0.000349
-0.045719 0.179841 -0.202349
-0.157955 0.334911 0.031410
-0.247509 0.253072 0.074892
0.042130 0.202293 -0.199434
-0.205865 0.229103 -0.040502
0.065354 0.193723 -0.230044
-0.163178 0.276563 0.017469
0.031440 0.190327 -0.180916
-0.037793 0.149466 -0.095755
-0.067387 0.126520 -0.115221
-0.108940 0.404379 0.002930
0.035065 0.206840 -0.196187
0.032777 0.221445 -0.203327
-0.166983 0.235908 -0.033534
-0.199370 0.371256 0.062986
-0.165506 0.172952 -0.059228
-0.134289 0.238541 0.000274
-0.021006 0.276552 -0.043986
-0.159891 0.306610 0.028388
-0.032788 0.189603 -0.199023
-0.008312 0.194205 -0.172858
-0.168187 0.348797 0.035560
0.072802 0.219700 -0.244797
-0.023621 0.270194 -0.036454
-0.003638 0.165131 -0.243645
-0.207460 0.422548 0.075438
-0.135019 0.257793 -0.026562
-0.210989 0.356918 0.049058
0.028109 0.250560 -0.189105
-0.189963 0.398167 0.056850
-0.187129 0.388976 0.053645
0.049396 0.213497 -0.225770
-0.143338 0.223484 -0.092895
-0.149841 0.270954 0.014073
-0.126173 0.209374 -0.104966
-0.094620 0.125130 -0.102952
-0.050949 0.298052 -0.057844
-0.226831 0.249170 0.083261
-0.052234 0.190992 -0.173482
0.036814 0.192860 -0.234550
-0.075653 0.099608 -0.096210
-0.157150 0.247992 -0.011711
-0.063871 0.150009 -0.131636
-0.041766 0.301533 -0.047697
-0.170400 0.189855 -0.103214
-0.226523 0.260480 0.050118
-0.125013 0.173620 -0.023944
-0.150315 0.304771 -0.002944
-0.137327 0.357963 -0.000037
-0.009489 0.191042 -0.191038
0.012608 0.181806 -0.210063
0.013498 0.251860 -0.202402
-0.021080 0.278696 -0.045724
-0.209163 0.376402 0.064588
-0.169077 0.193040 -0.031105
-0.142488 0.244539 0.003455
-0.162447 0.192149 -0.027682
-0.148904 0.227308 -0.083672
-0.162178 0.257613 -0.010342
-0.124670 0.213030 -0.085090
-0.132849 0.181537 -0.125216
0.062940 0.194694 -0.214382
0.033877 0.186085 -0.230344
-0.040365 0.185973 -0.150257
0.048360 0.210329 -0.245972
0.040648 0.279761 -0.195988
-0.123541 0.366428 0.019274
-0.188525 0.192109 -0.076036
-0.175826 0.353162 0.014005
-0.071714 0.145851 -0.120124
-0.125898 0.250438 -0.015002
-0.113931 0.197587 -0.090284
-0.178030 0.203770 -0.019562
-0.193648 0.226973 -0.007623
-0.156029 0.288197 -0.016558
-0.219157 0.399749 0.074064
0.127515 0.421536 -0.079623
-0.155664 0.163004 -0.060397
0.032163 0.210427 -0.107718
-0.145393 0.181916 -0.127221
-0.095115 0.172053 -0.088962
-0.098907 0.394582 -0.003774
-0.120713 0.212991 -0.009426
-0.158966 0.184502 -0.114699
-0.044140 0.200868 -0.186901
-0.146345 0.230938 -0.067518
-0.204980 0.379377 0.067175
-0.127899 0.202435 -0.013282
-0.129094 0.167348 -0.028606
-0.021447 0.190268 -0.140244
0.002001 0.193506 -0.133478
0.023246 0.192503 -0.119345
0.011403 0.203333 -0.204209
-0.018209 0.172881 -0.114395
0.002101 0.157412 -0.185393
-0.169486 0.355084 0.033228
-0.141122 0.208800 -0.016253
-0.233857 0.258910 0.087729
-0.143309 0.257795 0.008167
-0.084068 0.147450 -0.107555
0.070692 0.207269 -0.237105
-0.024339 0.142507 -0.149131
-0.037695 0.283126 -0.061342
-0.162821 0.336704 0.035055
-0.159706 0.182199 -0.110521
-0.140137 0.364760 0.008528
-0.131720 0.371630 0.003764
-0.186428 0.326082 0.041993
-0.007524 0.190645 -0.151071
0.019510 0.172149 -0.168072
-0.098146 0.408286 0.012001
-0.165307 0.227191 -0.017707
0.037785 0.254871 -0.189801
-0.012783 0.181804 -0.203618
-0.197662 0.235692 0.006301
-0.124305 0.132350 -0.090393
-0.205287 0.355432 0.020600
-0.025303 0.295692 -0.056715
-0.078870 0.128335 -0.110687
-0.197535 0.218854 0.030884
0.056364 0.217564 -0.252137
-0.010575 0.155915 -0.189373
0.015364 0.244901 -0.205984
-0.000522 0.187573 -0.140338
0.059036 0.208441 -0.219317
-0.108133 0.141328 -0.103005
0.073086 0.216703 -0.244710
-0.008394 0.165892 -0.121046
-0.120406 0.385500 0.013063
-0.197458 0.355455 0.056006
-0.131445 0.369893 0.001755
-0.041122 0.301576 -0.082875
0.061265 0.222119 -0.251543
-0.152289 0.172230 -0.105694
-0.104472 0.406780 0.011895
-0.193232 0.236649 0.027055
-0.229426 0.424863 0.080651
-0.194284 0.378611 0.063912
0.045459 0.259699 -0.204042
-0.217603 0.423334 0.080825
-0.203860 0.343098 0.026828
-0.137347 0.143182 -0.084239
0.019303 0.168417 -0.168733
0.131756 0.402874 -0.075243
-0.190613 0.360443 0.015199
-0.176296 0.283951 0.004333
0.021197 0.167410 -0.172141
-0.005648 0.148600 -0.155205
-0.134468 0.352475 0.000922
-0.051522 0.121905 -0.112091
-0.161126 0.237438 -0.044496
-0.160743 0.237767 -0.045948
-0.172963 0.227377 -0.005348
-0.095534 0.407313 0.010901
-0.199017 0.414403 0.042123
-0.098151 0.130093 -0.103059
-0.119725 0.177430 -0.020708
-0.083734 0.166476 -0.076597
-0.101395 0.197394 -0.058266
0.056649 0.182964 -0.208076
-0.191673 0.319417 0.029848
-0.101088 0.195626 -0.023504
-0.190263 0.372228 0.020433
-0.155993 0.274455 0.016910
-0.097701 0.391865 0.013891
-0.042628 0.175398 -0.195185
-0.095578 0.195466 -0.037522
-0.022384 0.148123 -0.112461
0.040305 0.172693 -0.190276
-0.154343 0.321441 -0.001773
-0.167729 0.175021 -0.059158
0.005352 0.177991 -0.122244
-0.014076 0.165369 -0.230633
-0.145808 0.236019 -0.003084
-0.164047 0.267266 -0.015330
-0.145271 0.233024 -0.005360
-0.190614 0.215660 -0.032544
-0.159847 0.254515 -0.002161
-0.199938 0.242050 0.024133
-0.230866 0.431066 0.081663
0.120403 0.444997 -0.075770
-0.084977 0.173638 -0.055203
-0.016969 0.163378 -0.217281
-0.110487 0.399618 0.014537
-0.149195 0.285103 -0.016155
-0.017808 0.192213 -0.168639
-0.221842 0.254217 0.075276
-0.112619 0.386525 0.019509
-0.031195 0.186465 -0.196086
-0.098247 0.157249 -0.102392
-0.152927 0.158364 -0.073614
-0.155631 0.245004 -0.016820
-0.122722 0.131002 -0.049279
-0.099052 0.142169 -0.104422
-0.047241 0.127895 -0.122171
0.041009 0.279425 -0.195232
-0.191730 0.369083 0.060693
0.024679 0.170263 -0.209608
0.032161 0.200539 -0.229897
-0.047818 0.296065 -0.051634
-0.149643 0.318249 0.018383
0.027919 0.238871 -0.187814
0.033381 0.257709 -0.188524
0.054367 0.207467 -0.214679
-0.059030 0.171199 -0.151398
-0.134747 0.192936 -0.019462
0.047540 0.176415 -0.196590
0.012330 0.203636 -0.105137
-0.042956 0.186562 -0.154449
0.134695 0.426033 -0.069120
-0.145738 0.349808 0.000070
-0.053818 0.150527 -0.084378
-0.248304 0.259325 0.090066
0.009078 0.195010 -0.128587
-0.175011 0.190462 -0.041017
-0.225107 0.391359 0.061532
-0.085692 0.171515 -0.067646
-0.126862 0.137213 -0.048931
-0.227698 0.416410 0.078207
-0.188508 0.395483 0.040909
-0.028459 0.135072 -0.113355
-0.028047 0.169925 -0.111820
-0.032487 0.192551 -0.188299
-0.161522 0.260979 -0.016707
-0.188353 0.346471 0.052376
-0.178408 0.236789 -0.031848
-0.188231 0.385621 0.031762
-0.097857 0.387739 0.003285
-0.091752 0.187293 -0.040088
-0.035289 0.149965 -0.161136
0.059099 0.198325 -0.209945
-0.154890 0.242622 -0.022002
-0.133182 0.226519 -0.061008
-0.168997 0.340279 0.040272
-0.207028 0.230361 0.055476
-0.004952 0.195349 -0.129205
-0.207873 0.350885 0.045950
-0.108690 0.377560 0.016516
-0.160173 0.167201 -0.062561
-0.036665 0.308537 -0.058033
0.134204 0.408473 -0.076021
0.002087 0.184639 -0.137342
-0.194209 0.383670 0.064935
-0.221685 0.252168 0.041408
-0.061047 0.162292 -0.141451
-0.153882 0.333288 0.028852
-0.047364 0.180764 -0.141456
-0.026694 0.164680 -0.109808
-0.154936 0.161979 -0.081227
0.041826 0.249848 -0.200971
-0.165303 0.288977 0.024221
-0.157356 0.236961 -0.054523
-0.051447 0.296208 -0.068524
-0.094210 0.187425 -0.058010
-0.137821 0.233867 -0.001189
-0.151545 0.307676 -0.002894
0.059571 0.183444 -0.224774
0.010324 0.164739 -0.157377
0.027898 0.221909 -0.185485
-0.002479 0.198131 -0.123351
-0.147963 0.349025 0.000932
-0.179006 0.375465 0.037863
-0.137950 0.204857 -0.015886
-0.142706 0.236700 -0.043032
-0.172250 0.276635 0.005436
-0.178533 0.211590 0.000080
-0.202362 0.339061 0.028793
-0.131534 0.183202 -0.022242
-0.081502 0.166017 -0.069543
0.035465 0.243765 -0.210171
-0.208637 0.404132 0.076343
-0.219429 0.233584 0.071384
-0.215909 0.361981 0.048076
0.006783 0.200106 -0.181807
-0.184339 0.197314 -0.093639
-0.135180 0.346660 0.017716
0.071728 0.206057 -0.244806
-0.033531 0.195920 -0.191559
-0.183581 0.351385 0.011428
-0.188791 0.235181 -0.033497
0.008180 0.201769 -0.106988
-0.121765 0.200004 -0.112912
-0.180463 0.328658 0.043965
0.068118 0.225343 -0.251037
0.131715 0.396044 -0.070555
0.019138 0.173448 -0.209642
0.016771 0.246117 -0.199772
-0.167725 0.334810 0.038853
-0.007075 0.152994 -0.179660
-0.208893 0.248273 0.051802
-0.129361 0.191251 -0.132067
-0.002651 0.190556 -0.109522
-0.128745 0.256689 -0.011880
0.011095 0.157108 -0.177957
0.012264 0.165534 -0.197524
-0.137126 0.142243 -0.061407
-0.047045 0.166863 -0.180774
-0.127857 0.159272 -0.106110
-0.038389 0.298520 -0.042223
-0.170508 0.176015 -0.075362
-0.052993 0.157536 -0.158688
-0.131776 0.215344 -0.105590
0.050422 0.173881 -0.206195
-0.164170 0.335224 0.036060
-0.103663 0.134639 -0.102787
0.006955 0.199566 -0.105596
-0.176623 0.342812 0.045995
-0.010531 0.192808 -0.167532
-0.019022 0.286727 -0.043590
0.001907 0.189904 -0.106985
-0.123900 0.137723 -0.096093
-0.196463 0.215943 0.008374
-0.208869 0.243406 -0.040206
-0.004867 0.193188 -0.165971
-0.114712 0.191785 -0.101464
-0.213489 0.355892 0.040628
-0.129311 0.213087 -0.104677
-0.170713 0.234823 -0.029548
-0.094974 0.399645 0.012567
-0.121318 0.241341 -0.020159
-0.007454 0.179483 -0.206465
-0.131164 0.213314 -0.119739
-0.143575 0.343094 0.000561
-0.070516 0.156568 -0.075760
-0.204007 0.235058 0.052179
-0.139226 0.339217 0.008757
